ply
format ascii 1.0
element vertex 705
property double x
property double y
property double z
property uchar red
property uchar green
property uchar blue
end_header
1.3481824660683059 -0.1167679754739807 0.4547025922274295 29 35 44
1.5585928990640678 -0.1175788102149799 0.5113232387849421 32 24 38
1.4744164638313344 -0.0100209183578531 0.3245531596216313 139 168 210
1.3674177866724770 0.0477622259669448 0.3491878266078772 119 125 115
1.3098105761954530 -0.1180868420066596 0.3888831602112416 230 185 121
1.5195818000431467 -0.0977149459837929 0.5004168797713703 69 71 62
2.0099466049325172 -0.0472403704886475 0.6114275482879177 64 60 40
1.3492205638373342 -0.2106918454245645 0.4201165156143672 65 59 63
1.4349570818574886 -0.0468224307787886 0.4400717953495351 189 205 255
1.5018586835440773 -0.0235672528066719 0.3102511212146543 65 66 60
1.4831648491537688 -0.1559742327410939 0.4754985386190254 65 66 62
1.4883315087397180 -0.0547587123847127 0.5199418304133149 169 173 185
1.4074570382352301 0.0421077177831240 0.4810475257449950 6 0 21
1.4459625099542557 -0.0158213218206467 0.5022240916553163 35 38 34
1.3454976283440030 -0.0523046124624119 0.4150098172632998 171 181 165
1.3275300554496265 0.1038503987424203 0.4749074717518496 49 46 67
1.7643550416087823 0.2499016986300953 0.4734364546253526 160 153 134
1.3334330420832634 0.1126249471557088 0.4470595522535877 61 61 53
1.3093269623675177 -0.0504207773089241 0.3942740942338941 193 196 178
1.3694016045396065 -0.0138643308702621 0.3746494549112184 49 32 42
1.7113408320858481 0.2737887709678128 0.4047814700222389 10 13 12
1.2465870765308824 -0.0154933243562890 0.4497398843846161 255 255 238
1.3742298524601300 0.1052460253352911 0.3566150076890370 106 94 61
1.5666874724850239 -0.1146124424747783 0.5141617287056021 100 108 95
1.5250980251397075 0.0626675781831518 0.3012344075559467 43 15 3
1.6711733348174413 -0.1627320537867928 0.5110782718547895 104 111 131
1.3425457836737389 -0.0530435225252727 0.4113284896228427 99 95 86
1.5037070741844434 -0.0475102310603707 0.3973441407358828 24 29 72
1.3655177619346226 -0.0347214699449512 0.4688306146645634 42 41 43
1.7433468018280927 -0.0896935554113920 0.3920073510755225 176 174 151
1.4752786482289864 -0.1232857537426516 0.5095446311306541 56 62 69
1.2544921707075518 -0.0283886813397457 0.3751980176770012 145 166 163
1.3763252800142685 -0.0130204069268085 0.4854631655808087 223 230 211
1.5744152639623845 -0.1837048525356179 0.4687485734271638 60 68 65
1.2610816713464124 -0.0152002378920452 0.4350843542967662 30 33 34
1.2795987537075832 -0.0159481004203057 0.3979235001566117 47 47 72
1.5364454496551923 -0.0984806489451659 0.4182212971823337 39 45 52
1.3722707947749440 -0.0240905952908086 0.4655734612103223 98 103 108
1.4444631047405874 -0.0449369564298099 0.3366661896669234 253 255 223
1.4747854394561088 -0.1608835318646296 0.3273522256837796 212 214 150
1.5196156615640930 0.2516350340212398 0.4614655766052401 11 10 21
1.8731885252707918 -0.0369127927753438 0.3161967736493330 162 154 159
1.5085538723647161 0.2380716289319189 0.3734751118909709 79 91 79
1.3285469201612123 0.0257286200591674 0.4951841209209992 207 234 203
1.8834817417650951 -0.1071774833640123 0.3596969655969675 104 106 97
1.3155963352565512 0.0030771835453104 0.4196436781502315 228 245 206
1.5241671608222518 0.1591730300398206 0.4715894310532892 112 103 106
1.3441913824413096 -0.0598939443280831 0.4071423637817887 147 158 177
1.4848027276627462 0.1930734276353239 0.3535397445019286 36 36 30
1.3215772223457416 -0.0446644393830947 0.4076046729784537 188 183 177
1.2970270207029468 -0.0472036359059089 0.4036465800410274 96 111 93
1.5028644412655494 0.0493998907410275 0.4288887460970492 246 243 220
1.2656978722623162 -0.0696031429188951 0.5103362630227358 80 72 46
1.5446863710634338 0.3070722401763278 0.4204511712590897 254 255 211
1.5094742499850113 -0.0625672015638230 0.5142632689700526 113 120 131
1.3779613142804537 -0.0592603612589375 0.4767720852804467 46 52 52
1.5343843317110717 -0.0029755798688514 0.5173949491063211 245 255 224
1.6441930640100240 0.3143438575293883 0.3935098787613717 239 248 235
1.3686498553572173 0.0585963460938931 0.3680351456854118 235 229 205
1.5412905919159099 -0.1408180616990446 0.3283915727607573 67 69 75
1.4136279824367846 -0.0215944261294329 0.4761953372767080 89 94 89
1.4625534600444869 0.2056304581874812 0.4949884438778887 37 40 41
1.2966532183096489 0.0024178034933636 0.4391994955179946 92 83 95
1.4954958213789007 0.0026205836766567 0.3134882647250096 250 253 219
1.3243078996467446 -0.0582371183019170 0.4657782492635021 141 137 126
1.5043802766873204 0.0038319470327513 0.3068782402593311 57 30 29
1.3800708494599836 0.0932052959464292 0.4277880066965128 127 138 126
1.9976410741390498 0.1537694628471934 0.1838869959919651 214 227 185
1.2569501081747028 -0.0431036805765603 0.4253130958003523 240 239 239
1.5317885078712083 0.1800352427041991 0.3916040884458415 68 67 67
2.2536472128848581 0.7389550227063104 0.3897535829450102 255 255 236
1.5467028360086936 -0.1070068757904310 0.5155610588641888 32 36 46
1.3423387110217744 -0.1092347143436723 0.4503009980272582 212 216 177
1.5093953812317946 -0.1793932193421959 0.4156948488469331 150 167 158
1.4943521338021213 -0.1676286360722602 0.4842760459385865 38 44 51
2.2748436127734131 0.2511025864738303 0.5372167614866994 76 81 95
1.4080420971095517 -0.0127881754857160 0.4829265630063299 47 40 42
1.3167973810590912 -0.0269725445025554 0.3789208185163241 255 255 238
1.3239564767739911 -0.1014486662235813 0.4378427593113404 243 247 238
1.5317218982517773 0.1911798755291046 0.3940823464176667 27 30 29
1.3456925645380209 0.0861237929215614 0.4791089537573001 175 145 171
1.5105696532137820 0.0714785719133693 0.3497211066620078 20 23 22
1.5718183800832459 -0.0217131632907753 0.4679115695094376 7 0 9
1.5332310547644639 0.0025357543249006 0.5191253187397965 79 76 58
1.5581169621497168 -0.1522432644199980 0.4916770990192076 70 81 84
1.4904043787064023 0.2293057646624623 0.4340327897397810 49 49 49
1.4727805315500280 -0.0339904810939733 0.3933635051227510 247 255 244
1.6503256953243928 0.1607355300814898 0.5262440622894877 15 0 3
1.5451066724647682 -0.0082432011381175 0.4585871786261334 0 0 21
1.5380853538671033 0.1149245062818899 0.3464973796513523 7 0 13
1.5736403898314681 0.1344000110054280 0.4246887650423069 20 26 26
1.3859592196084531 -0.0061366261804994 0.4701374011184040 137 138 132
1.4878705583586860 0.1512982819502736 0.4671759769451396 170 169 134
1.5157471139240073 -0.1414037914442199 0.4277455800267104 16 17 11
1.4936444456164606 0.1658579200795608 0.3513798584928197 249 255 252
1.4116721967221735 -0.0023985955742222 0.5150465976976353 26 28 17
1.5716775019267544 0.1384859895379977 0.4128743731292617 28 33 21
1.6475954903323740 0.2161064375466263 0.5020318416792281 143 128 100
1.5622742452954348 0.1726055267340157 0.4222993666874747 255 255 218
1.6526687020650379 0.2002997062646669 0.4893157360793395 200 181 152
1.4823335440905763 0.1893011372015310 0.4252015309763943 247 251 208
1.3954758385837636 0.1205948210689330 0.4405302075975855 101 102 82
1.5722096782416513 0.1480069573162218 0.4040102063164898 255 255 199
1.6368471086072720 0.1786439884539033 0.4719172302992907 206 193 167
1.5651909251615050 0.1219310188677885 0.4035568073578858 16 17 11
1.5591819028331746 0.2118744393654052 0.4775300822159450 27 22 28
1.5765619471289936 0.1269019421897494 0.3940011529128949 164 147 140
1.3645855693576607 0.0313820186886267 0.5016255753374173 117 108 78
1.3512874253839209 -0.2148592782275618 0.4296862688638244 35 27 50
1.3222059281167302 -0.0627754919734581 0.4399814230930248 228 223 210
1.5529846388197939 0.1555423060887305 0.3903097103461104 189 200 166
1.5402981850762094 -0.0109749852933028 0.4568504815682062 73 78 76
1.6332539722801125 -0.1152883713714013 0.3505877920500082 255 255 234
1.4324971831026969 -0.1246067948928686 0.3988775743515602 132 152 214
1.3671160066281820 0.0870106710889120 0.3521055127880401 34 34 19
1.3443713112549966 -0.1387846586981378 0.4649634517241007 227 236 216
1.5586800874830988 0.2004644177697222 0.3933151980482776 199 193 169
1.4341990784945957 -0.1231805207237744 0.3666155153204688 182 194 7
1.5865893139610590 0.2062864631692167 0.4411366592559651 254 255 196
1.5185766133356542 -0.1294722476655719 0.4915818936142143 104 105 118
1.5283490031882179 -0.1539134995234462 0.4822065661282711 46 58 79
1.5112728513092493 -0.0771041218489960 0.4841238229373511 103 124 128
1.6455259321956914 0.2040176541069708 0.4865598588331344 243 238 205
1.5971380099823163 0.1381927686019200 0.4093638678054656 26 27 14
1.6563502713090488 0.2166376727820591 0.4998497766235385 218 211 176
1.3978586577100920 0.1451207072025229 0.3465219439175537 57 60 59
1.4155188212999055 0.1081043684801060 0.4105702481946057 52 56 49
1.3980033302450745 0.0572201631420695 0.4623510740103636 84 85 94
1.4062786543758781 -0.2148329634167979 0.4308377087773964 207 214 214
1.5689463355115016 -0.1376243317614581 0.4912964013896742 64 69 62
1.5533626617701073 -0.0817091378906657 0.4526869145269253 255 255 230
1.4911300500494824 0.0894373198489879 0.3886448851935036 129 134 150
1.4657455766428942 0.1423828082755148 0.4559116954926037 16 21 14
1.6987444147394282 -0.1238735965841412 0.3404021307484656 64 74 84
1.4438971701733330 0.1109663991440882 0.4485049197181316 255 255 213
1.4572547823887483 0.0341980328039554 0.3778338031233143 165 181 172
1.3697456302557129 -0.1319381571003003 0.4714845348319757 16 11 9
1.4635970285393827 0.0714790456073905 0.4742785729839726 3 0 10
1.4639375000108261 -0.0603809324790712 0.3900444500534527 18 9 66
1.7128930448991690 0.0499469019524779 0.5407433489211757 249 249 207
1.4085851784943508 -0.1076893603538568 0.3861843773275288 16 10 0
1.5047149876379944 0.0394921472438354 0.3428405677179862 41 46 58
1.4893019310517290 0.1468227050193097 0.5050584342618428 37 42 49
1.6737076072566319 -0.1039404412768204 0.2944092781700389 240 254 255
1.3824649077616922 0.1113032859875789 0.4695711750804136 196 182 163
1.3535195577420709 -0.0574200060486129 0.4617576867997668 26 29 25
1.3681889870931014 -0.1561583387411845 0.4637059840468211 155 165 156
1.5689712938953877 -0.0073654922723061 0.4544312423312158 255 255 221
1.5121508309497169 0.1220133141313711 0.3897534310621458 218 215 210
1.5788272893393227 -0.1085857151320839 0.4800756460129485 72 77 72
1.4047474304283931 -0.0682597565521271 0.3692909820913532 10 11 20
1.4171182119995573 -0.0691462113149837 0.3525720532904717 199 175 146
1.5683625780247892 -0.0570277542057605 0.4391041101111252 253 255 231
1.4083285021951184 -0.1152542163250768 0.4153947471442120 56 58 73
1.4820279709432898 0.0803966148361649 0.3992091996177786 232 220 207
1.6267337444469714 -0.0561832280684723 0.5182360529462516 68 80 70
1.6502288511232146 -0.0387074268914216 0.5240877388592950 63 62 45
1.4223477595681966 -0.0372070696376567 0.4940232820116620 159 142 117
1.3597634863074313 -0.0500467085686274 0.4073320910589799 185 184 172
1.3985560037488125 -0.0508347776658581 0.4853066396162957 176 184 188
1.4794895957414613 0.1460988450835831 0.4181457341345365 45 41 51
1.4471812842208234 0.1548411008523836 0.3329900717022186 71 68 63
1.3737597813953579 -0.0420064916271944 0.3773886768471027 51 51 45
1.6293640107072263 -0.0708817302438023 0.5070884073626035 23 16 23
1.4210326906152859 -0.0980194453096015 0.3766305469485037 86 99 0
1.3746869154860744 -0.0586168719076798 0.4889097983097393 109 113 92
1.6316470576851980 -0.0693241445373242 0.5031340473960560 54 59 52
1.5686431363356355 -0.1145102986597274 0.4840035683936985 103 123 106
1.5815484595265654 -0.1076665179924370 0.4832129705875652 5 6 2
1.5720175017227203 -0.1129403777892922 0.4819918905160216 69 74 69
1.5727812020980390 -0.1245522454208476 0.4796052813743240 80 93 85
1.5478754218210187 0.1132359494930220 0.4426508549021770 56 66 76
1.5242815948363124 0.0444919983430676 0.4470075145054466 59 66 93
1.4316191064255408 -0.1252024288053383 0.4004505860873097 130 153 216
1.3897987377714334 0.0548058421222103 0.3942762791410087 41 46 39
1.5522130960856910 -0.1654310792035480 0.4494000521555327 33 42 39
1.4290661713356549 0.0279107679086727 0.3825149544397136 204 212 206
1.7030613843356996 -0.0348301918991885 0.5160214143774453 116 121 126
1.5998462802296569 -0.0864939088712527 0.4973020003220285 77 76 68
1.3756865998958250 0.0296506939078667 0.4264628174379213 12 12 12
1.5704410556747168 -0.1647560418783847 0.4761198555975965 24 27 26
1.5699181783849041 -0.1027607399636606 0.4751386103257417 62 63 57
1.5530288392586165 0.0267135315728080 0.2971449837020035 138 163 212
1.5394576109135976 -0.1828734418773488 0.4555381792541365 43 52 51
1.7628239872725382 0.2841126885246055 0.4170980263866856 255 255 224
1.3782596153278062 0.0396358092362731 0.3431092274406187 95 104 105
1.6758138513873555 0.0229269900886903 0.5343404758557693 200 196 178
1.4148869066765146 -0.0798557720585440 0.4538643984792856 24 24 18
1.5404178586891695 -0.1344260818756746 0.4397387321238319 217 248 223
1.5697280384670169 -0.0575423878511180 0.4328445719228267 212 206 155
1.5387382070007909 -0.1661302618608582 0.4608045898416043 29 35 25
1.3312723663236556 -0.0610181298115398 0.3665262612936686 156 164 149
1.5317484977210847 -0.1731062128527038 0.4544132373053725 65 74 84
1.4091449537958884 -0.0766047555314968 0.4184914714969600 253 255 240
1.3242333156586430 -0.0734691137110854 0.3679082967237671 217 238 242
1.5845694935020993 0.0816410966400739 0.3700357890727994 133 154 151
1.4592089979991887 0.1055377345347912 0.5068853510071053 94 103 104
1.3764162028023210 -0.0416672908301201 0.4823490134627799 90 83 73
1.3584994019587713 0.0579377989105087 0.3685690294255957 102 105 104
1.4796826698054091 -0.0381759972274142 0.4645894827703612 80 83 79
1.4130328444677440 -0.0694915274978118 0.4972261697273617 83 80 81
1.5537943929950941 0.2690768806431453 0.2646309446792319 68 81 90
1.3599491749624684 0.0580185675729521 0.3517911201867346 109 110 121
1.5067063090737922 -0.0490213867521834 0.4109138419225960 45 53 38
1.3742750323261639 -0.0405560077121964 0.3608128613424208 87 86 76
1.4042391598623856 0.0256931306076434 0.4235856829634826 202 203 183
1.3485067920081730 -0.0022198011777744 0.3495985831515528 18 6 97
1.3506092278972335 0.1265556325073326 0.3399866970336028 229 255 254
1.3606398169592373 -0.0471190977342524 0.4685598486908324 65 68 78
1.5333613300969797 0.0482035265031611 0.3713888814061722 13 17 18
1.4613393347571739 -0.0038892186211221 0.4568825148289049 43 41 48
1.3898134267583415 -0.0547426538193070 0.4906808859295038 119 120 89
1.4780420792475373 -0.0456597241070132 0.4719959041463190 42 42 44
1.4605306108995921 -0.0468546715915417 0.5121912415097597 18 21 17
1.3692693019846338 0.1854609509864477 0.3611901138109735 230 225 201
1.2654008826235517 0.0564375937775928 0.3212051046716901 90 91 78
1.3674578016819956 0.0635760393693983 0.3443170078336033 92 92 108
1.2735638864703314 0.0173401459100409 0.3512519490918753 65 58 74
1.3216359298093421 -0.0256889521607258 0.3576849743468798 240 255 236
1.4154981794033317 0.0047706636380812 0.3465943594440437 49 45 46
1.2703603066076861 0.1892689676881063 0.3724001204762231 127 107 83
1.3694280689317710 0.0417551884662604 0.3307369556767779 52 49 44
1.5757331054400994 0.0784141465443472 0.4809162595448738 24 25 19
0.8879945405249803 0.5576108335511002 -0.0152832741550759 70 54 47
1.3998176537490257 0.0191768171958599 0.3402537474102078 115 100 95
1.2668884288195674 0.0438072563617443 0.3935193544993391 140 140 0
1.3347990484748733 0.0252240034950797 0.4038675855087406 161 177 166
1.2476063711957324 0.0888976355351184 0.3443029882667006 90 93 92
1.3047530732107959 0.1521680825980564 0.4512948467950942 57 60 59
1.4988861658803552 -0.0076836552268029 0.4779347122535884 67 74 92
1.3876003127361769 0.0185734079144099 0.3153535791429011 53 29 29
1.4101521676594098 -0.0100542468737430 0.3320080037199549 126 134 128
1.6210355447060349 -0.0808705251993652 0.3939798736710387 47 50 67
1.1150220512869988 0.3918314571057176 0.2402115876053703 86 91 98
1.4103179066237344 -0.0200954912962064 0.3283425325235775 62 69 52
1.5248117652355806 0.0618987638176350 0.4591854888687233 5 0 4
1.5956872778365216 -0.1430311112009530 0.4856428375556884 242 254 242
1.2424510713138051 0.2935433635333354 0.1342606053237715 52 49 42
1.4571567504076390 -0.1203455427155923 0.4757321486222501 35 38 48
1.2334561117486333 0.0874720973242453 0.3418113979899687 116 115 117
1.3571315633582972 0.0157984463900431 0.2957304860754030 19 3 22
1.2945106940386177 0.0817049321505900 0.3399362838160017 74 83 100
1.3367139885039414 0.0678324589409600 0.3296202381874649 142 112 129
1.2675666436935895 0.0766217482426015 0.3371015980163359 184 203 175
1.3360204458482414 0.0634189990263805 0.3445106059164330 227 247 194
1.2626440239376959 0.0237710724314464 0.3277209147226686 201 216 194
1.5518144928350845 -0.0804296230083646 0.3990644009415042 63 62 69
1.4107794384249297 -0.0139974971490752 0.3484871647330434 149 154 157
1.4526218225587029 -0.0517949106935769 0.3477518807199410 233 230 233
1.3357675604271730 -0.0400952847572876 0.4136885679522356 184 185 172
1.3789013387900138 0.0482558068040537 0.3472825631043499 95 95 97
1.1917805884853259 0.1092471039525237 0.3801845348340536 210 220 177
1.4688070147292904 -0.0448568784057711 0.3790021607552679 43 52 71
1.4740485536597820 -0.1044483613351233 0.4842538609621524 85 81 98
1.2688772368605481 0.0827205603631442 0.3367103384274940 81 90 98
1.4652938062504264 0.0611076829387105 0.4841008277666071 16 16 16
1.3740720778223823 0.0718221594335795 0.4031478382124102 255 252 248
1.4457648539446488 -0.0724889033943428 0.4820833867137062 248 255 241
1.2205652028234357 0.0851431951568412 0.4478713333823411 133 156 127
1.5006895804327272 0.2040473495129808 0.4435698302116720 59 64 57
1.3502865103225201 -0.0738293033771276 0.3542111560360122 173 196 211
1.0352677674414528 0.5816549424691241 0.1717311728091894 229 216 208
1.3059518936712096 0.1209723651605062 0.3190941243518952 82 81 81
1.4155715359624232 0.0117880128449550 0.3109878917576776 83 86 96
1.2705180761939210 0.1254147546819720 0.4154599269225898 252 255 213
1.4179402064063229 -0.0372137409644259 0.3388363153814563 55 52 43
1.4602626835054449 0.1639906311603087 0.3538557788959824 22 28 37
1.5315102218125221 -0.0264097153884329 0.3565806295185188 59 63 54
1.3356599030819241 0.0430846539516859 0.2598469564077916 139 160 147
1.5793883845191126 0.0429826622662646 0.4019160594540250 15 18 14
1.3254529352021147 -0.0359254653044617 0.4076530232375152 108 105 106
1.4016306880639959 0.2463221476908247 0.1865984854576768 78 90 124
1.3078216371839622 0.0302511711612861 0.3204220256617294 103 98 83
1.3874287288541181 0.0531029123551752 0.4549177704925158 67 64 74
0.9649917473481361 0.5936551734551065 0.1494135196012090 214 222 191
1.4058258262664538 -0.0695026712169577 0.3679745976948227 172 159 133
0.9544243097889876 0.6036434449289594 0.1556093675796582 234 250 207
1.4149837016387323 0.0194341909255674 0.3091871810307130 50 41 55
1.3042008786641572 0.1476595450862078 0.3938588847085401 208 213 174
0.9743511975063610 0.5780834506798155 0.1469684963195527 82 85 95
1.3158943039663720 0.2631076731951086 0.3750618211554007 62 43 44
1.0100326520484229 0.5695570762880522 0.1534437724940708 240 255 231
1.0261151963316417 0.5630782291586117 0.1537528590703460 216 223 213
1.0261151963316417 0.5630782291586117 0.1537528590703460 216 223 213
1.3377449467014291 -0.0438052902446353 0.3844373306842455 212 213 200
1.4137893209851957 0.2593230580479109 0.3989861869284787 91 107 106
1.2650874617686416 0.0806078228093620 0.4048249729915155 12 0 17
1.4262364661276163 0.1026738308645795 0.4200372201967535 188 189 178
1.3070218569989684 -0.0313470247194660 0.3006616838717299 165 187 174
1.0247670489840992 0.5835754540160862 0.1620119701682446 226 223 200
1.0165966799162971 0.5884885436583631 0.1575911918446554 61 49 60
1.3669633775960650 0.1751837186916054 0.4356956595205702 131 111 112
0.8438577209686554 0.5543184554014875 -0.0420971725413929 208 199 176
1.5512997377136570 0.1558869768426567 0.4669732594561956 182 195 190
1.5088254572242676 -0.0432153973021541 0.4575749781146323 51 51 55
1.3846343653488624 0.2104679834599131 0.1673277655111126 112 123 128
1.4709542944856668 0.0887822714046484 0.3025118541756422 87 103 111
1.4623385861669398 0.0467211852551063 0.3083482384002021 50 53 59
1.5703548703342374 0.0137910864482007 0.4108461873146963 21 24 20
0.8423523828696335 0.2730528665023691 0.0576245526471713 30 14 26
1.3027614850674960 0.1121438260348810 0.4661733765299575 246 255 250
1.4431749762688544 -0.0551281332929526 0.4840435730367258 57 63 63
1.3785524914549256 0.1286334000083187 0.3900737334454082 4 0 11
1.4009634914847993 0.0520605162143898 0.4289221627075468 116 100 121
1.4058290937940434 -0.0066440525266205 0.3915033944064448 69 65 63
1.2672509539305716 0.1645744856140840 0.4164428054695021 10 14 15
1.3060560639722503 0.0078575883781763 0.3933484722077488 49 37 26
1.1235224582864456 0.2793229497925265 0.2326144540742889 75 63 74
1.3050375565024135 0.0630026694797352 0.3717641151114014 205 207 211
1.4205377252434874 0.0807807244258382 0.3869111496512637 35 37 77
1.4197425365498970 0.1091592480279192 0.3669100620239700 67 51 56
1.4325615020053577 0.2987924210728934 0.3728968446087968 26 29 28
1.3676840726053330 -0.0230005778588704 0.4683543713404261 94 102 106
1.3624602276951192 0.0630418365475413 0.3657362348031263 241 219 207
1.4649678399557016 0.0755342742217402 0.3543660640488653 161 164 165
1.1669977027672056 0.5122136507220050 0.2342763990633648 61 68 68
1.3709227963531536 0.0480578649594033 0.3758534240910698 117 98 99
1.3300236728409844 0.2876687732685317 0.3186545414132267 71 69 64
1.5609300062025893 -0.1250953962448497 0.5142892983594878 176 184 188
1.3472745889380455 0.0631240975310932 0.3652098341831569 252 251 223
1.2586871283639101 0.0513393234536435 0.3728978206087418 100 107 99
1.3226871659949713 0.2887405277331333 0.3163164175814126 99 93 87
1.3651725482558570 -0.0481323100372956 0.3705529366033897 106 103 104
1.3692782533528876 0.2675885458818310 0.2626500080004272 16 15 12
1.3786242213269795 0.3351725522873487 0.3507566092690733 62 65 73
1.4675708261525575 0.2641827983422935 0.2215584978354485 211 241 223
1.5432915307692046 0.2685619042491182 0.1755963137599971 90 99 105
1.4001525917903226 0.3019559168167942 0.3652460324517471 75 80 78
1.3856114267632498 0.2818083327985602 0.3354241498746316 59 61 65
1.2677724276195035 0.1257501661344840 0.4441890922492208 82 85 91
1.3649380583886026 0.0719250209312940 0.3361077956523996 206 218 216
1.3002300115038510 0.1355577780463080 0.2982032276516292 55 50 56
1.2200309828327518 0.1016322005950017 0.4250240350238862 84 71 72
1.3636070164221656 0.0457629175465359 0.3659985321922567 88 64 62
1.2779049447674757 0.0120461315214936 0.4020624524374742 22 23 91
1.2917740175481331 0.1234329884742809 0.3250289874878410 75 76 87
1.2926656653296476 0.0211929620373626 0.3827826075818251 111 114 18
1.3233374597088812 0.1002067806629450 0.3606252731643493 194 195 189
1.3777882463028055 -0.0002946936116298 0.4695516701332852 55 53 60
1.3227337377805033 0.0532066360963725 0.3819852787619346 235 218 200
1.5338367433454796 0.1736891470818455 0.3804119111147581 23 27 28
1.3718555527187706 0.0612495802882245 0.3753604624290256 157 133 124
1.5233703478603391 0.0270122623755039 0.4889265444222236 102 103 92
1.3934668108412922 0.0905904626069091 0.3797850177986021 124 121 126
1.5357721013429768 0.0850333325120989 0.4643871495296321 54 58 59
1.5731155915799830 0.0077015126871356 0.5223965063255338 128 105 100
1.3733358485346985 0.0522396846600107 0.3699355375816009 234 220 201
1.4634280658030328 0.1133147600935614 0.3605661200992615 243 253 210
1.3954415902895634 0.3002523706449971 0.3278192320412334 79 83 84
1.5413606254341927 0.0796454866478277 0.3663303846474923 11 12 6
1.3212033266012966 -0.0325259368729528 0.3095692871108489 211 226 241
1.4008397294457160 0.0543136651302762 0.3909190746858071 195 188 176
1.3910140386041268 0.1002214789847691 0.4563376598864529 67 53 52
1.3042715552027950 0.1329253621313288 0.4015452283071267 51 37 38
1.5042542531243281 0.0616982687285053 0.5003382701229062 174 164 174
1.3957220559926693 0.0558946859668944 0.3800269048619259 228 209 201
1.5119372282561339 0.0159376264726772 0.4971844027247843 254 255 249
1.3521994563570254 0.0025462420317913 0.3860469476539288 62 50 35
1.3572699990426704 0.0686240267903623 0.3877595191731953 242 255 240
1.4903073575769969 -0.0084267883065272 0.5003157272122722 126 121 134
1.2917650265804619 0.0648649859158241 0.3811132006470755 190 203 188
1.3712984021842634 0.0814912689594302 0.4673743104666196 107 85 87
1.5071879009755313 0.0004273822109648 0.4522996200626655 129 148 148
1.2737658058929877 0.0801353082069297 0.4584623912622457 175 195 169
1.3260320663739409 0.0897014147530127 0.3978726169684677 114 116 107
1.4241721808797345 0.0759644853952640 0.3916590172668112 231 242 208
1.3807778129590011 0.0673474536001902 0.3791260302727962 25 15 13
1.2860353621944287 0.1134356012698974 0.3904757608915277 242 238 255
1.3661839571420471 0.0626980352718462 0.3720704412446043 79 70 75
1.1910141264900713 0.0167018579401279 0.3991661958325564 51 57 57
1.3728211796701262 0.2715991713403377 0.4046678223319356 85 89 80
1.2936817649306780 -0.0019449701961070 0.3579811036332336 125 133 139
1.3772651207278406 0.0506711144633195 0.3709105681629729 118 103 102
1.3002285368641155 0.2833515024318106 0.3791386912161944 149 140 140
1.2808916187008457 0.0478832700992450 0.3840269859104811 40 29 18
1.3024380154281667 0.0043534122820238 0.4243110810579573 88 82 84
1.2327300287733360 0.1004688847102923 0.4132630753660523 235 242 200
1.3781107785230264 0.1418549956766881 0.4319998242347740 77 89 89
1.4022621071973385 0.0429016745802947 0.3284116427706631 243 244 206
1.2061485548630948 0.0167874181138312 0.3355271653715401 197 205 174
0.9449023498875899 0.2522195604507055 0.0877122932636595 127 132 135
1.5126626812581754 0.1723737731622885 0.4004956467590267 34 37 36
1.4128487602686719 0.0537659208722957 0.3128256672884945 255 255 220
1.5329285248207336 0.0388096515365362 0.4632842271931000 115 123 117
1.5075334290316360 -0.0052284329682131 0.5013842866923236 148 133 147
1.3255939266106398 0.2659797923494756 0.3881117109972496 219 221 199
1.2630836618802030 0.0840255586521138 0.3315462384915170 70 72 78
1.4302622493371975 0.1706494272381091 0.3719370912361160 14 18 21
1.3049476957914885 0.0766008192218571 0.3611639227684924 131 143 133
1.3095849855215742 -0.0312675176614091 0.3841827306700351 81 77 78
1.3030785735293497 0.0074169298064737 0.4364208498618924 125 123 109
1.4067953830253626 0.0631443030774958 0.4052468164854268 217 189 188
1.2689033448695506 -0.0373580380250907 0.3324509555802873 96 95 69
1.2504293006884677 -0.0480267252545412 0.3125157092118134 128 146 158
1.1922717863573444 0.0465724668652577 0.3387810706323093 181 202 189
1.2428881195865218 0.1872169434078226 0.3035614983563364 193 194 183
1.1840889022354111 -0.0004395972007636 0.4159205350677861 162 165 161
1.3700466139459362 0.1960366262897704 0.1969120755764726 31 30 20
1.4752944769665461 0.1463595350019428 0.3370567318937295 135 153 132
1.3405152448459716 0.0538190751794423 0.3997981956497957 252 242 217
1.4049670359273640 0.0109912087351379 0.3662819891807190 248 255 241
1.3264216050587521 0.0479181540147084 0.3555010861531655 98 95 81
1.3303528734540013 0.1554412035137028 0.3979245796434577 13 0 19
1.3643252044651406 0.2214463645843540 0.1954136932246900 134 155 210
1.0783388032594476 0.1784721123430273 0.0972697658728330 70 60 86
1.3411238968503538 0.1204133718756561 0.3871916334465051 51 46 42
1.3311704580643926 0.0553018160131372 0.3722405332454546 210 196 159
1.3028174314332812 0.0131526252694271 0.3778543352705336 125 131 0
1.3033417551841848 0.0125815647265688 0.3778861901663777 125 131 0
1.3137088654173201 0.0993960590937615 0.4091668156365422 179 202 157
1.4713703038015662 0.0896261896968936 0.4483623720786924 105 108 104
1.3032638690140854 0.1589439483114590 0.4026284297588685 194 197 181
1.3714258644218353 0.0322985793152122 0.3631479475446654 159 160 149
1.4530108783924109 0.2663094550625165 0.3687539208333485 40 43 49
1.3577505885852383 0.1301990397234770 0.2390092281043739 221 215 127
1.3436775755678334 0.0187312137114947 0.2875166172852848 130 143 124
1.3486031699155019 0.1128905333544453 0.3776944734183811 210 226 201
1.1883385281050567 0.0697519809410953 0.3815288845271143 29 33 26
1.4245757815414681 0.0978912860009470 0.3253133588132051 242 255 225
1.4446469633391739 0.0997810935140000 0.4254689215318418 49 51 55
1.3322465444544307 0.0553079876982537 0.3970455021641427 108 87 84
1.2854122294622963 0.2982360358350592 0.1623207394235195 7 13 13
1.4310119157783563 0.3197704056716243 0.3517397918990547 30 35 30
1.3417279365691530 0.0822967829165912 0.3569449665457352 132 124 96
1.3920588278335801 0.0734380919889096 0.3978528553820128 221 222 191
1.3591306307671547 0.0522971745939183 0.3705304295914619 97 92 105
1.3591306307671547 0.0522971745939183 0.3705304295914619 97 92 105
1.3528942178639851 0.0469759532272997 0.3623510700539788 137 132 136
1.3618441513980293 0.1513761691397656 0.3630934470743310 73 69 67
1.3270101029834411 0.1620322639362702 0.3937551745043231 201 212 198
1.5343394536804771 0.2304828204563278 0.3251106188916409 93 101 105
1.3550527441173590 0.0847938563178182 0.3286456624378755 53 55 42
1.3111747210996587 0.1453420945947984 0.3909991654765143 112 116 107
1.5212554961818863 0.2488002457694694 0.4518929838718265 48 50 39
1.3393600292914760 0.0700224847246445 0.3394618739796986 171 203 175
1.3365532661890702 0.0384419875631647 0.3757796827136907 255 255 224
1.3780222429200020 0.1536021875440091 0.3761047728488679 223 255 239
1.2935336483239857 0.1051703236988017 0.3449910496293826 225 255 252
1.2939705926623668 0.1290810179618189 0.3244257748601467 28 28 53
1.4409864582877716 0.2881057598755329 0.4146170959348808 36 29 36
1.3070917098670627 0.2419235635587530 0.3645794059899539 207 211 181
1.2926700207431239 0.0187496559354862 0.3864808737905523 96 113 28
1.3297363891911427 0.0563846999590971 0.3689599152474382 178 199 192
1.3545699835023512 0.0931617977295926 0.4520813627637842 70 65 61
1.2411136596536247 -0.0357767289251879 0.3041715732182140 107 109 113
1.3936815346446716 0.1311753017641327 0.3780390040993338 4 0 11
1.2849183296426290 0.0965592477987495 0.3499544256975197 91 94 95
1.2909279483896534 0.1022301348704565 0.3464971548569872 250 255 255
1.2784029130215198 0.0943679169257463 0.3904409538498831 32 28 54
1.2991357614763168 0.1077594533636121 0.3431475786339241 202 215 207
1.4591522631614171 0.2271573223166530 0.3169665377020326 224 255 238
1.2937316813109676 0.0352631255181763 0.4043123467684469 154 157 172
1.2534871917887753 0.0226851563008220 0.4454790542631724 136 135 146
1.4093077157245035 0.2569747514884186 0.3724051045340868 81 86 79
1.3586156865040726 0.1235809270592710 0.3837687425638577 183 195 165
1.2940676510533276 0.0876573799402425 0.3716059239681350 63 60 53
1.3949926272309792 0.1392533049335693 0.3858804929770120 18 22 23
1.5098178670621276 0.2363299831221318 0.4385386305605495 75 77 64
1.2944145543456400 -0.0233084537336607 0.3649074196198721 111 112 99
1.2473683943349496 0.1371284972883157 0.3930940635580490 249 255 211
1.2699880822187621 0.1410841074166377 0.3892404730198897 243 255 249
1.2822621826507787 0.0991598620542199 0.3962968396765851 106 99 98
1.2944083419960921 -0.0292969316235643 0.3675903682602245 149 150 146
1.3534835654794464 0.0729147351129476 0.3589393916922571 181 178 188
1.2100742325321292 0.0585699341251706 0.3781282674031936 80 79 76
1.4974596386391563 0.2152892624188141 0.4810536924543637 0 1 21
1.3620878017201858 0.0840389120971932 0.3555108723914753 255 255 244
1.2625323264791990 -0.0795035454577070 0.2410834802098430 52 53 42
1.2845737430431610 0.0695336313487335 0.4091359391782826 25 23 39
1.3346356408680800 0.1568328467966374 0.3665119686245490 238 255 216
1.2874579101095793 0.1278768497607719 0.4025019748491255 239 255 192
1.6575071057604742 -0.1266645023482490 0.3149290033430948 255 255 238
1.3885799817243365 -0.0345771250470259 0.4808526491799009 62 62 64
1.5875794533943015 0.0053578920941040 0.5359142395449490 66 58 44
1.6031545362460156 -0.0742321836934801 0.5330147782887636 36 41 36
1.5152285415009166 -0.0764903805061360 0.5023634003648660 187 207 170
1.4372274938989791 -0.1089880738062123 0.5012171227701412 5 0 10
1.4398664335999740 -0.2294343432027695 0.5171101729949371 171 180 255
1.2231171515588415 0.0112277614130963 0.3906738627204350 53 53 45
1.5050786288940137 -0.1123556823487442 0.3543390723691009 44 39 35
1.6269291603545919 -1.8854125144095430 0.3058322705504992 158 152 144
1.2149152697941952 -0.0395350755640106 0.3393009305105337 188 222 207
1.6417480164364826 -0.3017368391541388 0.5241197114357052 39 35 45
1.2530284854341702 -0.0378064118814508 0.3736473660926861 52 57 55
1.3849034719654258 -0.0310246053690950 0.4850670026993259 56 50 61
1.5347222065148658 -0.0508466289042658 0.4207275721927559 14 19 22
1.5472580337238537 -0.2839096737254461 0.5132596812504776 6 3 15
1.7994715063117657 -0.4846681735971512 0.2050277692299895 7 0 11
1.3032813928277291 -0.3211341392609072 0.1829715252642014 54 47 46
1.4151647954460747 0.0832085468832165 0.4274345410602781 134 146 144
1.4441018825550100 -0.0816609066101074 0.5137387639675983 33 34 45
1.4804937405085004 -0.0265207451983070 0.4772998596220796 251 255 240
1.3645125749357712 0.0509436538888962 0.3726545987664243 227 219 189
1.3790463712979251 -0.1055749825877779 0.3382505027395352 57 64 66
1.4049600378915017 -0.0279415960607712 0.4764405588490183 127 132 146
1.8239014951087205 -0.7632368228372926 0.4753958467968903 27 25 30
1.5476466773693334 0.0021261962855700 0.5332888533914830 22 25 21
1.6455834552996980 -0.6176614735023580 0.4396471145557874 195 204 173
1.5207965273252848 -0.7968265174971630 0.0855798149292204 58 62 55
1.5323688465607517 -0.2785043893133679 0.2432556956206332 228 218 191
1.3441811611177936 -0.0497638739339998 0.4068114692264315 117 111 96
1.2994540378584647 0.0330333171444480 0.4018565952766222 106 105 107
1.0398973123538051 -1.3873476210653908 0.0751240993827138 234 241 241
1.0398973123538051 -1.3873476210653908 0.0751240993827138 234 241 241
1.3008020305431525 -0.0411986534749114 0.4176602426088594 21 28 32
1.4027808058368267 -0.0197245834971361 0.3713354652136053 194 218 255
1.3470272956433562 -0.0580828335927414 0.4108861705506280 37 37 53
1.2503288602110629 -0.0138351589443249 0.3525173211630395 64 58 34
1.2943101716121188 0.1155711396137967 0.3629213541021043 151 156 140
2.3080084773625673 -2.0919150469503083 0.3673006420083168 16 0 4
1.3994370508025975 0.1446699586691527 0.4330299096213139 28 29 23
1.4974850905057457 -0.1332657338653155 0.4885539389897406 16 14 9
1.3308914642323608 -0.0692966414441497 0.3244939293660838 109 110 97
1.3422356913409543 -0.1080134969219954 0.2706126530335779 247 255 233
1.2229793314273896 0.0495014355251779 0.3716547292075948 55 58 59
1.3521603033091745 0.0850656766998248 0.4492449482422255 57 54 49
1.3848075238105155 0.1672959959119913 0.3376561843893357 252 255 246
1.2372381667666805 -0.0119662135898909 0.2595294432444686 158 170 142
1.5528604005678361 -0.1223584733779628 0.4091963877311828 221 236 200
1.4952575544909177 0.0342703612667110 0.3177763034914931 95 73 77
1.2714721330537557 0.1006553987599503 0.4169703047371337 95 91 92
1.3833726606989742 0.1612279543886886 0.3844877928292325 65 59 63
1.4699831378287844 0.0941172223464027 0.3191671658741062 165 176 160
1.3290124863425155 -0.1208377229790526 0.4537221938287944 224 225 205
1.3474055282680142 -0.0775814724384249 0.2922792713232715 109 96 61
1.3479187912644344 0.0176268378500256 0.4195127154924184 93 92 84
1.3011677521672722 0.1365826835398127 0.3624935931047220 248 253 239
1.2992875992714552 0.0228710671867767 0.4175806942343392 246 255 247
1.2797973474351740 0.1360355642624562 0.3278376830947162 121 125 144
1.2959188819937235 0.0330854912665080 0.3998536995826021 248 255 252
1.2916491286971115 0.0117863399739288 0.3971749918712815 59 50 20
1.3397926224086723 -0.0490961284632698 0.4094528458365346 156 165 166
1.3474903206829043 0.0551795314381809 0.4072117759988845 202 210 195
1.2894666895730902 0.0638730140951518 0.3785113653137220 182 207 175
1.2893039417459915 -0.0097391739907752 0.4419465442905050 63 51 49
1.4571762877035881 -0.0901537317858394 0.3908247962588895 190 173 162
1.3040329823554853 0.0808572598950061 0.3594447995748952 246 255 249
1.2640117570766702 0.1351091193790889 0.4662042680484888 50 50 44
1.4427412548601701 -0.3450974114957905 0.3371085878508157 129 132 72
1.2631986818146848 0.1113008123194441 0.4413220635712299 116 118 109
2.0065322976931137 -0.7382133522206180 0.2838331389757896 5 1 18
1.4195087842752598 -0.0683809962026753 0.4389361534121450 151 177 204
1.3577844834219448 0.0992347015345804 0.3451807017666860 129 134 127
1.4057190818772984 0.0552109244443129 0.4403368803421537 106 117 105
1.3714273018398142 0.0472008120370155 0.4080171138918770 85 84 74
1.3605349408118579 0.0785849531679662 0.3356368628424024 156 158 149
1.5797839836084426 -0.4761893052683654 0.4292003769238329 198 200 171
1.3574625078812814 0.1092877812840814 0.3379542312699281 133 142 129
1.3752716034312287 -0.0226449944452726 0.4764204193521190 16 17 13
1.3292843260512184 0.1558016391814985 0.3410852406842619 190 206 179
1.5037118020412232 -0.1420765342810314 0.4054218576479242 43 48 64
1.6591220346106814 -0.2785301159215934 0.5040728879939986 153 166 161
2.0134872746485870 -0.8547411689169914 0.2424530871062129 4 0 10
1.3622950411863139 0.0672506236567247 0.3444437265401508 253 253 238
1.3355492507013551 0.0015159476803592 0.3727511705185830 123 137 173
1.5072982854110730 -0.1549832029055574 0.4272473258567976 143 158 249
1.2541616426530384 -0.0457626628212967 0.2881696563831877 252 255 255
1.3684146366709720 0.1080251718628868 0.4276980991551429 32 37 32
1.3901207584676651 -0.2080879983324884 0.3190677296612159 247 250 249
1.2961927479654980 -0.0769388608741901 0.3651014020938860 32 40 55
1.5596583038572807 -0.1168843061181945 0.4995391865616153 76 83 94
1.3192830991785893 0.0320608599785700 0.4735979173776009 33 34 28
1.6033380114876894 -0.0614440086430983 0.3467247538720843 85 76 90
1.4882165393758555 -0.0558748618086862 0.2865472918025816 76 85 100
1.9714179960965810 -0.7827249520763888 0.2380409441384595 115 99 101
1.8097956365619776 -0.5522970873753533 0.2021313337327397 72 63 68
1.3867921751036774 -0.0089040997490038 0.4704133924861866 112 109 119
1.7977755006970841 -0.1527088427779473 0.3400295795409478 216 237 234
1.5069428571711041 -0.0112585601293190 0.2807826428455134 79 91 112
1.3452760241791826 0.0423424421828790 0.4206047441430582 15 18 14
1.3336621809418201 0.0201364623733893 0.3387916962913566 88 92 93
1.3673669921433711 -0.0537993946225945 0.4782709365346768 111 119 113
1.3114502999357909 -0.0817846039379689 0.3813452143344032 29 34 41
1.9022940489134579 -0.1860388603574193 0.6014312224228818 33 33 27
1.3910476028486620 -0.0260931008993230 0.4806888688862685 135 152 143
1.4830979597936813 -0.0171822987452400 0.2904759408760471 84 91 104
1.5024902545343535 -0.1335392279304540 0.3092978144538514 85 80 93
1.5140750341891311 -0.0142341103650018 0.2828177104566577 84 92 114
1.4926915070915168 -0.1403839076835939 0.3059569145710715 123 134 155
1.6069146366137417 0.0607677425476837 0.4706979818130291 123 123 127
2.1146565036906386 -0.5216208758230021 0.3597139671244254 252 255 217
1.3419854881557272 -0.0545670577495428 0.3970839554834977 143 150 131
1.4493434487778354 0.0274349451892469 0.5013519007531554 34 28 57
1.5538435679122724 -0.9220359316968869 0.2741535355646811 132 147 171
1.2615741617308891 -0.0736688959755376 0.3275139393738397 79 85 83
1.4446749786180479 -0.0573740908681919 0.4857943353797249 79 76 81
1.2630269628097930 0.0921199556800174 0.4176929399772967 11 11 11
1.3314660765044923 -0.0742269182775640 0.3061291330137357 102 100 79
1.2397963860197514 -0.0297844860522612 0.3114618862496765 35 24 55
1.2956211497063062 0.0184580355690351 0.3860897358873108 122 123 0
1.2285648174364785 0.1189569547358775 0.4322375032239225 34 33 44
1.3798332923562782 -0.0634938343884222 0.4657208929483322 91 106 112
1.3697881004117574 -0.0975085670423391 0.3383417035092542 26 10 22
1.2999354987804246 0.0078851491124470 0.3781866402883116 22 8 0
1.2761327064696892 -0.0820843292774851 0.3211062706518491 128 134 134
1.2364942236196854 -0.0559054239987782 0.3136063898996345 35 35 53
1.2390398345207911 -0.0543826735728729 0.3123529969231024 56 53 56
1.2626151515433495 -0.0660061053855654 0.3152539161331648 122 138 135
1.3821562978409030 -0.1847789825445613 0.2809583097993591 41 42 38
1.2943682107347776 0.0731881296341644 0.3558956065175304 81 86 89
1.3635988029284314 0.0771321668793985 0.3609933861563006 208 213 183
1.3221398013236179 -0.0911175119887014 0.3660740978770879 87 90 96
1.2850025306715647 0.0310624797681913 0.4384093965338550 114 140 140
1.3704556674375608 -0.0897455668184926 0.3462693039233727 239 255 236
1.2328802105987724 -0.0530937010561253 0.3121663698788578 8 0 27
1.2545067309997222 -0.0617055048471188 0.3136813950026558 153 167 178
1.2398392686565274 -0.0576132442033819 0.3137207397315412 208 238 255
1.2418956989924568 -0.0572327379493067 0.3132693022097932 14 6 11
1.2409107142542430 -0.0550932087075119 0.3130141486495720 226 255 251
1.3221266257665660 -0.0995265782560132 0.4316089408271758 131 122 127
1.2391192065030476 -0.0416081047022755 0.3078952160630473 60 63 62
1.2599343535728806 -0.0664133099121172 0.3145090868898970 242 255 251
1.2550703760017003 -0.0668726384311633 0.3158741477166758 59 62 61
1.2469746470581808 -0.0620924228978846 0.3146437469493450 32 39 39
1.2321843273632065 -0.0268479063644471 0.3308960773255034 60 59 49
1.2531832962280391 -0.0635763771937818 0.3152413538493812 190 216 214
1.2531832962280391 -0.0635763771937818 0.3152413538493812 190 216 214
1.2496923336105272 -0.0606671496751930 0.3140248474962297 89 98 113
1.2367435516285663 -0.0532824523300790 0.3118142187881852 40 32 39
1.4317121223333240 0.0444050258354561 0.4602872515195686 70 71 67
1.2220988985669745 -0.0036079793685004 0.3523628398656831 163 185 182
1.3279875722574979 -0.0301279011339353 0.3670926456675326 164 181 220
1.2868943277301386 0.0189543946845607 0.3846057467927577 20 15 0
1.3573567362327379 0.0581662933971321 0.3592148578516545 223 217 200
1.2895362963531978 0.0106977122015963 0.3818780300494500 111 124 20
1.2465271918421115 0.0449974311909807 0.3733211436803224 131 123 93
1.3824292157917188 0.0729123932722576 0.3749406595856834 222 216 190
1.3823356803444122 0.0338932143213584 0.3829072784578265 248 228 195
1.3853152561257942 0.0310185488940776 0.4734085619477063 135 147 128
1.4501708133290534 -0.0098912460370050 0.4968377305240497 106 90 102
1.3005233571385728 0.0118104099398038 0.4159828658547216 195 226 254
1.2990053256142926 -0.0783538771782769 0.3828972175399864 132 127 131
1.2999980541512253 0.0143352975248328 0.4158586188380082 216 247 255
1.3037666629501301 0.0119111696087363 0.4155170912693965 214 255 253
1.3000307002288283 0.0176313636849047 0.4151486781508397 213 255 255
1.2979323489008334 -0.0790372653883320 0.3833742509632394 175 186 193
1.2931908035810946 -0.0756901186915139 0.3813881220211862 57 59 50
1.3012728964409139 0.0196394312052733 0.4136787033489883 197 255 251
1.3012728964409139 0.0196394312052733 0.4136787033489883 197 255 251
1.2975437369722798 -0.0753828157619389 0.3807917381134410 151 158 169
1.2958962782567482 -0.0747391221360315 0.3807579278738591 45 40 38
1.2824157826446501 -0.0647808543586037 0.3756504957813108 73 71 66
1.2951117167271797 0.0094608625610633 0.4055859857183375 22 4 117
1.2951117167271797 0.0094608625610633 0.4055859857183375 22 4 117
1.2752473204439383 -0.0606792047073377 0.3725470600971805 117 128 114
1.2927195981487194 -0.0685363847650498 0.3772238333626016 122 135 130
1.2918626258965604 0.0073932038174995 0.3977237082596330 32 26 88
1.2345368535700176 0.0299461095113599 0.3756797309265718 79 74 80
1.2992433568182420 0.0177817243896909 0.3990343326833934 185 207 255
1.2104288596128288 0.0606967656272173 0.3757795654302838 220 237 236
1.2919928279223907 0.0180222478997161 0.3927760755273526 33 26 62
1.2372277631666757 0.0535295723897784 0.3766987759819468 162 162 118
1.2999276017559136 -0.0814612785501548 0.3843490585998511 76 67 77
1.2999276017559136 -0.0814612785501548 0.3843490585998511 76 67 77
1.3036283220007665 -0.0815028003693498 0.3840840996865096 191 204 199
1.2925510229579047 -0.0722585294842536 0.3794655347299581 62 63 52
1.2925510229579047 -0.0722585294842536 0.3794655347299581 62 63 52
1.2788440369712426 -0.0604913336003301 0.3735985977941630 53 58 56
1.2576851209311193 -0.0472694758576823 0.3785797872339156 70 67 70
1.1920984093416618 0.0653327732271126 0.3823748484891141 39 42 50
1.2131402283367330 0.0527237182591753 0.3790742365071278 38 37 29
1.3114145148190248 -0.1006939483511045 0.4195581857325662 29 29 29
1.2401144906087411 0.0502877449741011 0.3710900374027664 52 47 32
1.2437815660917324 0.0530291679347781 0.3723328225174790 187 185 135
1.2389618239046709 0.0475645478299128 0.4133561644103170 44 44 38
1.3041687138937086 0.0216653540714775 0.3668224134453872 126 144 188
1.4019144596283024 -0.0275026403547947 0.4775873734112055 60 56 73
1.3236925642815880 0.0421435987386922 0.3510996322815094 60 63 80
1.3242453215468386 0.0450251512585205 0.3605035571993567 85 92 96
1.2619672357262630 0.0294897173760991 0.3523300961191203 147 151 112
1.2833577327003340 -0.0541234402399813 0.3814362226181455 22 27 30
1.2668017050064246 -0.0217898928832582 0.3764690766858059 255 255 255
1.2344661560639214 0.0410647558217253 0.3862758789936450 53 53 47
1.2963918967427290 0.0162533585549416 0.4000243232656138 139 156 217
1.1826618830527704 0.0545511822204022 0.4288164258250351 139 155 154
1.3161983850223058 0.0181826484679434 0.3905641019278548 42 40 70
1.2631563141006072 0.0307241676077165 0.3932692353990918 144 160 25
1.3033276733285535 0.0081764036989827 0.3995495096709880 163 185 237
1.2954416115732090 0.0125871946403596 0.3796459128294942 22 22 7
1.2974487345519137 0.0127002800437401 0.3963748354107092 31 25 91
1.5066846904676363 -0.0852779295265752 0.4783827049274022 52 57 64
1.3066427942626437 0.0120947819097783 0.4196366133624596 54 60 67
1.3255493793006343 -0.0545232167966028 0.4040347699572446 33 38 54
1.4529338096480349 -0.2753799790905369 0.4775095705453996 18 16 23
1.4531436006218195 -0.2753822085642604 0.4750809535818852 252 255 240
1.3016089978544869 0.0130984128395328 0.4038229561929630 141 170 231
1.2597287936896602 -0.0206793150408128 0.3757874526601760 28 5 22
1.2844350839121554 0.0635137340322714 0.4107561004699354 181 159 149
1.2963089609348410 0.0090364215867051 0.3947270251290888 16 5 56
1.2630313914189648 0.0058707445469323 0.3566390631682795 81 51 33
1.1857743026003988 0.0780683863331431 0.4273392608963449 15 16 12
1.3116580719136075 -0.0901535665082219 0.3785795611751974 196 207 212
1.3026782114517230 0.0062008191200084 0.4132657487626778 54 59 71
1.4898920665692970 -0.0496924927075078 0.5077171663812385 19 21 36
1.2409539908503564 -0.0385096855875410 0.3703821880752499 102 121 126
1.3684072929397213 0.0642023931828827 0.3676271045309367 205 206 186
1.2987875836713403 0.0091600003674161 0.3942182621552776 135 144 27
1.4277657715057472 -0.0454846655612592 0.4827637485432395 90 89 100
1.3113070450613022 0.0084271019995293 0.3900412798170125 150 162 37
1.3450722441577916 0.0733756507058372 0.3589889624673018 74 51 44
1.2931331893265496 0.0067093533391787 0.3856494074181608 13 0 0
1.2904437712178154 0.0102010854202748 0.3838705413215258 121 129 27
1.3136157501385604 -0.0439916612337618 0.3588086880964064 247 255 251
1.2528433879423164 -0.0123541685723187 0.3560579409683407 53 48 44
1.3120414386788284 0.0134096293455776 0.4360478493013299 168 195 255
