ply
format ascii 1.0
element vertex 692
property double x
property double y
property double z
property uchar red
property uchar green
property uchar blue
end_header
1.0657722849773046 -0.7292416048453310 0.0109232360908418 23 14 7
0.0613810246939867 -0.1765078883861443 0.0685285784064743 128 119 112
0.0461986260551926 -0.7310859830971554 0.0263004964362419 79 59 48
0.0485569638341417 -0.7310569659636545 0.0288300279967224 0 1 4
-0.4387838443829369 0.9105922996335449 -0.0486814048855997 56 43 37
1.8409313850860682 0.9098943014765326 -0.0020621246924565 151 125 108
-1.0132006895452843 -0.6682117837551460 -0.0460598639284323 80 66 57
1.8409313850860682 0.9098943014765326 -0.0020621246924565 95 72 56
-0.9920240438542053 -0.5542129165953966 -0.0329573887883578 81 74 68
0.1475448574273251 -0.5167278801969452 -0.1289314749265564 18 17 15
0.1405686283889440 -0.6393246238909698 -0.1673266499472328 31 30 28
-0.0439838902573269 -0.2742248045964336 -0.0080714247391319 150 143 137
1.6271944966541017 -0.7273633463866946 0.0142607665899904 0 1 0
0.1576401440551396 -0.2296822427932103 -0.0231054423610034 25 21 18
1.7242707532399193 1.2770124452501155 -0.0099676865868209 142 135 129
1.7401845511140643 1.0230391454145389 -0.0059511913356611 138 128 119
1.7759704945673296 1.1919983631725279 -0.0037877292906484 110 100 91
1.8088688017566170 -0.7914069647932896 0.1873001133978441 65 34 14
1.7250018386484636 -0.7275467836416913 0.0345697717893633 1 1 0
1.8153412270905402 -0.5052378037395835 0.0067560883725472 118 113 109
1.7445092520600065 -0.7841665189190953 0.1901386541656324 54 32 21
0.0375651459687222 0.1079169844178480 0.0033153611913607 29 25 22
-1.0933787183906891 -1.2932418777277883 0.0112213763153900 151 146 140
0.0548442246540151 1.0315495408854491 0.0071476014746437 152 142 133
0.2518893907187976 -0.6548646828183521 -0.0269266809057421 53 49 48
1.8820561589319815 -0.6683042218369766 -0.0311446732333518 20 19 15
1.2785822563580471 0.8303098829085631 0.1798794680943736 16 11 8
-1.3149389113842935 -0.7685229570336432 0.1856664876047884 167 130 104
0.5785894255108748 0.8127081433441927 0.1836271645151143 59 30 14
-1.0096376112617984 1.0746712097024407 -0.0548599217268020 128 121 115
-1.6527098205679929 -0.7521547997867823 0.1710734376461505 9 2 0
-1.7772163367085119 -0.7883642757910752 0.0877366782504523 110 83 72
0.4879316796554795 -0.7275866699451122 0.0127796781861274 40 27 18
-1.5633251679744762 -0.7547848684996581 0.1601074078015839 4 3 1
0.4656938976475511 -1.1269134852249021 -0.0901368547637627 74 65 58
1.2040696610094823 1.0544981831098617 -0.0044742331778609 138 131 125
-1.5668735280484434 -0.7832122052796727 0.0914375707738708 121 95 82
1.8511139129715406 -0.7828497716987182 0.1823946879600120 56 33 19
-1.6300508684286343 -0.6905205641912519 0.0141568143638360 164 131 114
0.9585346777127254 -0.7253873499199566 0.0195660352517687 58 30 18
-1.2903451422866639 -0.7444473770493534 0.0236374797791115 173 138 119
0.6711460441800984 -0.7591872170371206 0.1548867334008721 57 42 37
-1.5635239959229041 -0.7358075595661930 0.0291699725025986 138 104 92
1.1668615855419988 0.8701774672161378 0.0280615082788853 127 96 76
-1.5803924797885522 -0.4536889742654606 -0.1031429372743699 67 60 54
-0.4941076797082165 0.6920938480888411 0.0223464305906135 193 166 157
-1.0683473832329835 -0.7626972821614432 0.1819502837056161 185 150 128
-0.8082010002373637 -0.7717652886327405 0.1839066395600901 179 141 118
-1.8042939071850235 0.3394640966795240 -0.1441099012896735 59 55 52
-1.3189084345081723 0.7814269231558053 0.1825707827467071 118 80 61
-0.6362382605015251 1.1779772568395659 -0.0067964935270201 155 146 141
0.0790263435958567 1.1183547467792785 -0.0066681984620335 196 189 183
0.3148412666584178 -0.7584908924606284 0.1785450857517790 177 149 128
0.2677846687670828 -0.7682608270986742 0.1538600603826330 21 12 5
0.1991675477567765 -0.7825406694536454 0.0937964446009211 171 142 124
0.5959701967427570 0.8341501914327114 0.0376170375368324 95 77 67
0.3715011550553520 0.8300473688665901 0.1851734011259590 214 197 190
0.1553567469078526 0.9059940280439404 -0.0213495316883635 29 22 16
-0.9698827333723755 -0.7638849347965583 0.1850017950597161 171 138 119
0.1102236355120759 0.9005522004133646 0.0090740826589174 50 31 24
-0.5136945660124554 1.1037445422021310 -0.0041450274227717 201 196 192
0.6301517220379653 -0.4064590711204956 -0.0034423510254987 196 191 187
-0.9267379805591796 -0.7734570132607028 0.1805180094314768 190 154 132
0.0459062052296070 1.0454851874499804 -0.0041021282034955 183 176 168
-0.5854482985269422 1.3515393439796304 -0.0049741188631612 160 155 149
-1.5861328313118892 0.2541738183529742 -0.0017715220794240 164 155 148
1.3241764944061707 -0.7752666237943031 0.1785378007654859 99 66 47
0.0899688518981249 1.0231196740278341 -0.0048057489392175 159 149 140
-1.2692559443748064 -0.2519737460666224 -0.0029819258436439 52 44 41
0.5436910278215157 1.0993823843412107 -0.0036377454410014 136 127 118
1.8792518764908117 0.8308080690320778 0.1800344499662837 179 165 156
0.5439903265502993 1.1008849493393789 -0.0027693159546747 136 127 118
0.0263746594625942 -0.3181827860806039 -0.0026173071608749 106 97 88
0.0030777096550940 -0.2150734383062310 -0.0041503198769089 158 151 145
1.0095310488935256 -0.7576048759585342 0.1685711460296268 9 0 0
-1.5715037002826542 0.3750400495561836 -0.0665313300996536 101 94 88
-1.6029421915895592 0.8999041398129500 0.0080201068858470 65 46 39
0.8977508659428326 -0.7838889143934546 0.0936271151454032 168 149 142
-1.7003449561706372 1.1013247947380411 -0.0052088949451066 180 171 166
0.0797366275193821 0.1064270733645979 0.0415332933860122 52 47 44
-1.0252627059088404 -0.7236132698433870 0.0113119454929086 52 37 30
0.3219099933794071 -0.7182376263467791 0.0249840135473072 10 2 0
0.2911414841195907 0.8694873251875738 0.0147316741129113 40 26 23
-1.0749562232413286 -0.4633568612373186 -0.0046017690833492 162 155 147
0.0496226259597427 0.2141062186202586 -0.0017448674194715 142 133 126
1.7032323278713872 0.2372848956475779 -0.0047033267124953 106 97 88
0.0901604036225723 0.4188135459207074 0.0097541022771279 254 254 254
0.0938663201199132 0.4246598346943227 0.0119853755889394 255 255 255
0.6351520041945096 0.7940251056494166 0.1553483541584375 3 0 0
-1.2194011118611705 0.8737281065199901 0.0096564118679459 0 0 2
0.6984174100428725 1.0098882927412758 -0.0034317877081959 194 178 165
-1.0972724272641445 0.4892298287201427 -0.0041612783035617 206 201 197
0.1299647605848558 0.4214863903428342 0.0147595013966205 255 255 255
-2.0403084335837312 0.8527046792247603 0.0334018145589140 104 82 69
-0.3140322765426884 -0.7630045785952516 0.1848218087738735 123 101 90
1.7438239643944535 0.8267017955142901 0.1811594116205772 216 201 194
1.0670970194663678 -0.7814443272650955 0.0399969786601469 168 150 140
-1.0841531624701017 0.8378339521363629 0.0337050147780422 90 70 61
-1.8381861596526152 0.8507554682110694 0.0283227733547254 74 54 47
0.0939074350825030 0.6896154040561578 0.0218211482073398 208 193 186
1.0560573647069460 -0.7368135587565618 0.0346995912200848 188 157 137
0.6558047406783136 1.2344168747349826 -0.0075595654716235 167 162 156
1.1565914999098494 -1.0509672775808401 -0.0041282402843051 121 114 106
1.8370216213654842 0.2242876843077658 -0.0009059150927452 107 98 91
0.5411944572194380 0.8385755355956187 0.0350436078549208 140 118 107
0.0264122246964670 1.0617421925588100 -0.0067378868741142 167 156 150
-1.2444590525309358 1.3427155167714189 -0.0075384949401428 193 186 180
-1.5112620549116618 0.8498453374834913 0.0269409868585539 107 89 79
0.4830604960801693 0.9091645815927349 -0.0075593861089280 167 142 122
1.7414205711630104 0.8686886316701385 0.0283577817231245 123 101 90
0.6973855656941151 1.3305544914836591 -0.0041988525367723 202 192 183
1.6689790763909746 1.0883276288082255 -0.0026854653927092 118 109 104
0.5595144836591244 0.8617939556943075 0.0288243743970715 40 31 26
-1.0585506054924005 0.5827751973489851 -0.0039821285100891 135 117 103
-0.4372314939887602 -0.7394489330314490 0.0302961013559167 172 145 128
1.2001683853217071 -0.9679869278868644 -0.0022581606250904 131 102 84
0.5719624821399895 1.0079746447221789 -0.0030806536057720 179 166 157
0.0473600761297251 1.3116822386075973 -0.0047819273984191 180 173 167
0.1131964474409398 1.1148739233252900 -0.0030183365569881 141 128 120
-1.5780478276348464 0.8914048446919656 -0.0695836599012950 108 86 73
1.7396623214969815 1.1168951451279951 -0.0021132855335779 144 137 131
0.5638735033697245 1.1660349233862726 -0.0039300261867385 211 206 200
-1.0242315192789659 -0.4197126691615101 -0.0063808971686078 175 162 154
0.6251328161231990 0.8636336936224480 0.0338188004206075 4 0 0
-0.2378423323581235 -0.8016545738948964 0.1143091104814281 25 6 0
-1.0013044150630335 -0.7261332668582370 -0.0863305662807244 95 81 72
-1.0112443982558370 1.0085807771158144 -0.0256753612552242 84 70 61
-1.6908000437213366 -0.6973183920536618 0.0177722785211693 156 125 107
1.1246099952833417 -0.5304672603959870 -0.0022521312129637 141 134 124
-1.2266096293566329 0.9542178620403430 0.0016930656609451 165 144 127
-0.1683286788310564 -0.7369074150640139 0.0302348040205646 191 158 149
-1.0087229240557505 0.0301398623175356 -0.0865606006067351 120 113 107
0.8172045149128000 0.8721731472802767 0.0232741177797643 26 21 18
0.7291560209625370 0.8744330797696025 -0.0020363220235933 16 12 11
0.1338345862177339 -0.7525989832652809 0.1712287746255374 0 2 0
0.0419580434949464 0.0756484886261730 0.4713278769498205 197 193 192
1.6952790425994508 -0.7572328739421865 0.1800149769776431 183 161 150
1.1011172823229869 0.1189891330399749 -0.0038051112997731 123 115 112
-1.0115918717534764 1.2186825879743144 -0.0252039580295442 78 71 65
-0.0758266637401896 0.7989487101610633 0.1867369650858607 111 67 38
1.2362577229780589 0.7611008513075256 0.1919824938648433 145 120 100
-1.0072649807272707 1.2601330581627728 -0.0564159680213034 91 86 80
1.0874087841078492 0.8620778267892507 0.0314229724149420 36 21 16
1.6243714618526139 -0.7424204057043489 0.0349666755065928 149 131 119
1.2982591220786295 0.7963433290656667 0.1885067968076201 39 21 11
-0.4257822521240949 1.1885948910407702 -0.0568902025080718 102 97 93
1.3238383572977237 0.8022744942879785 0.1852832875794712 12 4 2
-0.6495116806560439 0.9070227240841859 -0.0011953078304146 185 154 133
1.6595794932834904 -0.6979997018949382 0.0213650452937782 158 128 117
-0.5086939329267244 0.5985129983923527 -0.0041444103933367 178 164 151
1.1924398120616011 0.8609989412801073 0.0296097952867410 26 21 18
1.0473988639120639 1.2309142243053492 -0.0046805215034432 173 163 154
1.2182714720479724 0.8609258242533864 0.0264233195975622 7 0 0
1.8515905831364101 -1.2305698502174358 -0.0120201526130697 20 19 15
1.2190519619326330 0.9218228807680671 0.0157464159501697 105 76 62
1.8328125053205642 -0.7024857294672269 -0.0002045604534718 131 104 83
0.6274601774462922 -0.7924286445206018 0.1901832778035437 105 65 39
-0.1625831319530245 0.8726143058029314 0.0230301074124649 16 7 2
1.6252987003709136 0.8619393163640880 0.0090681776112039 22 18 15
-1.7813225311951937 -0.7930602063647977 0.0229772405562830 136 108 96
1.6312528388599703 0.9129929458523620 0.0061275655360365 120 97 79
0.7106002724425653 -0.6020407114691875 -0.1598166544040626 35 34 32
1.4778574310189976 0.8243007405235339 0.1749641439554727 182 164 154
-1.2167554392380704 -0.7197240466783923 0.0204426082541639 3 3 1
-1.7211337282065524 0.9003277111760912 0.0155353348464200 160 131 117
1.2625408515088616 0.9077989707593033 -0.0026810198387126 149 124 104
1.2625408515088616 0.9077989707593033 -0.0026810198387126 124 99 77
-1.2022003551495017 -0.0527450840932522 -0.0048833611445820 176 171 165
1.1666916719050457 1.2128972555672473 -0.0036855376199796 153 148 142
1.1631670926715303 -0.7305994753932459 0.0317496045570697 43 32 28
-1.5901499017200211 1.2340547052520574 -0.0004603642677250 179 172 164
1.5262607756397810 0.7829973606808915 0.1848744185435912 7 3 0
0.6785128289354297 0.8790464578870056 0.0246187523712856 4 0 0
-1.0435133552327236 0.0903996456489507 -0.0083237410260926 191 184 176
1.0705264229708509 -0.4181172691130219 0.0011668626188738 130 123 113
1.2594869683368872 -0.7486136264183121 0.0301106980327360 180 149 129
1.7322351015881476 -0.2622807117637523 -0.0044534519922652 97 87 77
0.8533939618362303 0.8514100387878852 0.0361760638871163 160 134 121
-1.8994808794448528 -0.8062829588230824 0.1712112781103303 164 131 112
0.0636922309572968 0.3046833347459832 0.0143754767971392 246 246 246
1.7695182021331184 -0.2304086727779920 -0.0047457325611096 130 122 119
1.1034967578841435 0.0137148508573868 0.0015467509568935 121 111 102
0.1484701152259015 -0.2191351746103395 -0.1589479376027916 188 183 179
1.7404757465996261 0.2106660885670900 -0.0043728088923960 113 103 93
1.0449943087671256 0.8456096241001685 0.0331153105921462 160 141 134
-1.0103545555449103 1.3086839344835028 -0.0295003200791351 108 101 95
-1.8537468196339739 -0.7254697838985223 0.0644126342307001 137 110 99
1.8153364564939929 0.2957628101186960 -0.0065798883892035 87 80 74
1.6685227387034689 0.9100085618435509 -0.0466369365926284 20 10 8
0.1852367056570376 0.7964581673954609 0.1906714912977575 71 34 7
1.4751028635908010 0.7919887985147728 0.1849676365904832 6 0 0
0.5736242624338262 -0.7386077474473407 0.0224152963926978 70 53 43
0.0835350176397478 -0.7748628119317820 0.0619073429613022 182 158 146
0.0631283794357889 0.1034137075958349 0.1653211566675121 65 60 57
1.6078101470951831 -0.7726395818451538 0.1669205394853710 143 123 114
1.6697627313259522 -1.2387495992992841 0.0043640527867344 108 95 86
-0.5428734985253045 0.7782550841112488 0.1635340045673572 117 72 41
1.8543196627133405 -0.7619533505646807 0.0634446881233351 178 161 151
-1.9339584255261986 -0.7611179172479993 0.1868765640900801 168 133 114
-0.5836849399842462 0.0210070025456928 -0.0038726025570119 211 206 202
-1.0266935609597903 -0.7196672305243333 0.0133040793470344 52 37 30
0.7044102165372657 1.3328899217112742 -0.1749970111406437 31 27 26
-1.5754026357371909 -0.2867543799655299 -0.1329233492964102 140 130 121
1.6230293715135744 -0.3514819853938830 -0.0046632461068682 104 94 85
1.5659541094343172 0.8175894033171601 0.1925587350968241 19 11 8
-1.6492114829431301 -1.1507103259353777 -0.0064172392246484 149 144 140
-0.8356003706661835 -0.7273637804015413 0.0250552987702742 182 145 118
1.0957854984183155 -0.6520917959015539 0.0055131826326512 172 154 142
-1.6011160184578372 0.8240475642304801 0.1858223228004372 151 114 88
-1.3743717126259971 -0.7668980876911058 0.1841659377422701 172 134 113
-1.5740912989971605 1.3919392443755365 -0.0493521298823868 157 149 136
1.6366280349791904 0.4524310951479344 -0.0056428357901910 147 138 129
0.6098630827229518 1.1406371160844415 -0.0050605241523336 196 191 187
-1.0003315982973469 -0.6134865705695489 -0.0363154666716402 79 70 63
-1.5406397088651411 -0.7821433472460307 0.0409798577317118 134 110 98
-0.6078266135655319 0.9286601206527824 0.0202760119944719 182 163 146
-1.5628555558301074 -0.0595135314852451 -0.1084104143105880 125 116 109
-1.2024613530578989 -0.7684963802730855 0.1831803558429825 175 137 114
-0.4328013632845488 0.0411693333789216 -0.0061735727192528 205 192 184
0.4803975030723067 -0.7513186084511860 0.1715338792052340 75 47 35
-1.6092489167949586 -0.7390564587710396 0.0007396400878636 54 37 29
-1.3634319613614847 -0.7809400102814766 0.0593159041244995 133 105 91
1.4838759573173883 0.8654707148429495 0.0163578769971635 42 32 30
-1.5682392549409503 -0.7959257591487898 -0.1060069979579026 93 84 77
1.5431361622214537 0.8664217635514025 0.0200776002790541 38 29 22
-2.0960225679752620 0.8269157943284937 0.1573302125445883 34 23 19
-0.4257001828822148 1.1889170370334865 -0.0565685368154696 102 97 93
-1.9737786963072579 0.7852826795210172 0.1853815897120569 85 43 21
0.5787190334157887 -0.7584885815378024 0.1685049037132962 72 43 29
1.2616795686126578 0.7730339402497876 0.1840499494697537 40 21 14
-0.7847781000906822 -0.7651036847548500 0.1810207853490216 182 147 125
-1.1028359259071114 -0.6979728613712930 0.0251426106165301 158 131 114
1.7214796950179467 0.8590287887208827 0.0360550793253452 17 10 4
1.6641429569444315 0.9381209576018275 0.0016259776882607 24 16 13
0.6221498732847005 -0.6266968506020408 -0.0033504663576081 158 139 125
0.5913667656797107 0.3153703836082387 -0.0059831234017397 171 158 150
-1.6157810080521415 0.9278467225488922 0.0175586405371678 176 154 141
-1.1930645751880793 0.8259297937370813 0.1864547390832153 162 126 104
-1.1564778684589250 -0.5548453101876085 -0.0035608645076760 171 161 151
0.4446052110280690 -0.7326151263092828 0.0329028604309308 186 159 142
-0.0826383786157095 0.7951001326096970 0.1817899404397859 111 67 38
-0.0030850448374376 1.1743013358125800 -0.0062988091385438 168 160 157
1.7118027349992224 1.2214679211800350 0.0013817085352525 105 95 86
1.4547011224313913 0.8304596770048120 0.1852060339172371 213 200 192
0.7687057811831920 -0.7564625534970009 0.1754547476742427 91 63 51
1.4607448800444991 -0.7549923648884382 0.0130693135018169 177 153 141
1.1695682135029006 -0.8395749235207839 0.3333261904700736 71 70 68
0.5307164283226269 0.4677419822031674 -0.0050615695500836 202 195 189
-0.5466756867461370 -0.7808442945902193 0.0947729180809405 157 130 119
0.9002267345516908 -0.7617419717434708 0.1827813080748662 205 178 161
-0.6909913509358218 -0.7125961706232560 0.0514014972776006 173 147 130
0.6789976616439874 0.3247975137951309 -0.0073201744602867 131 122 113
-0.9638259153684330 -0.0458166813644826 -0.1218191353198005 39 34 28
-1.1041257709565286 -0.2558725150365712 -0.0044134420068672 134 125 118
-0.0069087526568439 1.2892104889374172 -0.0042961540215366 161 151 142
1.0528271045421096 -0.1631918683129152 -0.0040769064319827 226 217 208
-1.0416827481553002 -0.3203139896576972 -0.0049940049127414 164 154 142
-1.1542111996610753 -0.7710671132771810 0.0434049957464668 162 139 131
-0.0116396237690685 0.1907954879917758 -0.0077177677363686 156 147 138
-0.0096360337801278 0.1957132940584169 -0.0057605045306377 156 151 145
-0.0841994140841157 1.3066162484070962 -0.0697538118126544 139 134 130
-0.3079707530682034 -0.7560128137666003 0.1661786654409006 4 0 0
0.3778795899906230 0.8672301460175151 0.0173346742700856 40 23 13
-0.6371348352352330 -0.7145394950105666 0.0212742871644303 52 35 27
-0.6362533194514984 -0.7132343579201906 0.0216252667516972 21 23 20
-1.5660998816261054 -0.1274023836726323 -0.0147493332249236 121 112 103
-0.2685657139735815 -0.7560588117242173 0.1697014745521239 99 64 45
-0.4847107542876137 0.9379543592282877 -0.0003456378184645 50 28 17
-1.7173302390161997 0.8196776983042311 0.1854393733452645 120 82 61
0.4101886346030881 0.8576078719446708 0.0075672704079324 44 25 18
-1.0573550531091076 -0.1294844012780473 -0.0151835281215346 158 148 138
-0.5150400003501547 1.0166078719174485 -0.0040123206879551 193 183 174
1.1749755386617589 1.3535538386300201 -0.0179720434074468 187 178 171
-0.5675433556531213 1.1029098275252009 -0.0052173239013384 203 198 194
-1.6805685809112654 0.8841598026439146 0.0272529438782957 19 10 5
-0.4468966764624618 1.4033575951120449 -0.1570623115842904 11 9 10
-0.0482562084295338 -0.7137904898792167 0.0239152892166420 50 36 27
1.7816869993803335 -1.3014340257692505 -0.0028764439263755 105 98 92
-1.1488511892790563 0.8457252921242665 0.0394830328152893 84 64 55
-1.7445600900701326 0.9229824161405873 0.0111832638036432 175 155 144
-1.5759405832043802 -0.0091616179027017 -0.0704488190833554 130 121 114
-0.1492828306338193 -0.7608889363549471 0.1835211730160085 191 154 128
1.6026122909901079 -0.7193038588958935 -0.0049950484528044 166 136 110
1.0661756781068117 -0.7295139941745754 0.0106904575727778 29 20 15
0.1274022781317101 1.3304709138025705 -0.0006947791968751 150 143 137
0.0056475101789584 0.8278721987853330 0.1825031433745837 211 182 164
-0.2576781136893916 -0.7823850189861118 0.0967901938581172 145 123 109
0.5272492086680994 0.8663692912169694 0.0345871689437566 41 31 22
0.0056475101789584 0.8278721987853330 0.1825031433745837 211 182 164
0.1498142206386072 1.3037351579235112 -0.0056332439802547 219 210 201
1.6258378222848417 1.1245798847380390 -0.0042492939460296 119 111 108
0.5004596996683235 0.8477967920640981 0.1512698881681257 13 9 8
-1.5710104933737998 0.8578767606186661 0.0302371726579804 111 94 86
-0.4044602779727113 -0.7333267701724671 0.0313004531738193 191 164 145
0.6531409158858447 0.3786612208271881 -0.0062441762623748 161 152 145
-1.5871899802008707 0.8688583397420323 0.0131575824613515 2 1 0
0.0065080097435178 0.8627356849275798 0.0268185608321939 3 0 0
-1.5769482087001607 -0.0292461478963508 -0.1371787427992648 108 98 89
1.6280906914980005 1.2938524598342651 -0.0043746085273154 92 83 76
-1.5690630672251713 1.1164390176320131 -0.1560849634528189 135 121 108
0.6026126588465387 0.8478879173702750 0.0306500125859483 2 4 0
-0.6629128126612820 -0.7343683923235034 0.0385592561352178 194 167 150
0.1590214774503943 -0.7402011954998310 0.0291118849325697 188 152 126
-0.6331375272529298 1.3690246377500599 -0.0042589074729367 139 132 124
-2.0912011842752070 -0.7983270752091585 0.0768067660171110 121 92 78
-1.0396945519645193 0.8639280950010803 0.0048054535622193 33 24 17
-0.5773487984392272 1.3220442975371853 -0.0041184235322564 166 161 157
1.8686169528614502 -0.7683935300897944 0.0424795600682848 156 130 117
-0.5723704011324978 -0.7700591776124076 0.0431569399737594 173 150 142
0.4776711974706297 -1.3045598952514756 -0.0046010171258326 77 72 69
-0.4080550950876924 -0.7815167718811689 0.0913790699656772 166 137 123
-1.0031567147640896 -0.3945683720321042 -0.0697390072284874 121 114 106
-0.6580525241807063 1.4007328642559544 -0.0267118146473960 8 8 8
0.1843068064393459 -0.7698656551829854 0.1844254090491231 188 152 128
0.5967497804475536 0.8702276170230343 0.0302534731786691 144 113 95
-1.1331258990642110 0.5909298917947337 -0.0083033711254918 205 192 183
-1.1212410589603323 0.6261097055671082 -0.0061292312652041 186 170 154
0.6398665841566449 0.8624688734697326 0.0315862584627743 52 40 28
-0.1118740188966690 0.8737927596048616 0.0222118026724665 39 21 11
1.2620004862761949 -0.0749013620760846 -0.0178320978243341 86 79 69
-0.5310102891306370 -0.0800288842819652 -0.0005480006878481 197 193 184
-1.1532110457335545 0.1302240124974255 -0.0037911682408420 211 206 202
0.1479578979806851 -0.7024844016759761 0.0027442256644304 177 154 138
0.4774685615438095 -1.1553751395169363 -0.0068370225321768 192 179 170
0.0941746508656048 0.9254012439653274 0.0172655726225623 173 141 126
0.6935835577416863 -1.3954804819066162 -0.0120653465489493 147 138 131
-1.5730611986049654 -0.7192531175157684 -0.1192923190934601 103 89 78
-0.3230312253538156 -0.7352341172340279 0.0298742505180056 181 149 136
-0.8202592940667091 -0.7862631573554513 0.0914726553956112 149 117 104
-0.4246611690587486 -0.0639009353174012 -0.1454988990516012 174 169 163
0.6279066677849334 0.2385776695605985 -0.0041241259614323 110 100 91
-0.5198585127345755 0.5951326904591595 -0.0032204559242016 162 144 132
-0.6870664550761820 0.8549959364668435 0.0005020477093513 44 26 16
-1.0099169862765738 1.1637125696427062 -0.0839533151212745 115 108 102
0.1216651682524670 -0.7808450651987865 0.0969336528370045 168 142 129
-1.2392099750591004 0.8985976396101014 -0.0071110162208281 187 168 154
1.6103671910102062 0.0740188036115671 -0.0053173293985482 174 161 152
1.0752864590643259 -0.7577948291583355 0.1647965568567246 54 34 23
0.6288266685404631 -0.5424618436203239 -0.0045170007301335 124 111 103
1.1984882482984833 -0.0292906308060907 -0.0023513494025335 119 108 102
-0.7305072089822604 0.8210158647997940 0.1875561245385346 159 118 96
1.1750920863542460 0.8391354025045336 0.0409242894948826 96 76 65
1.1151405403776879 -0.7576133021900602 0.1681114729741904 49 27 14
0.6275992637329194 0.8396924064402618 0.0362905929673154 110 90 79
0.6464463487090618 0.9239511882413494 0.0161498173218638 145 114 96
-1.0657711666226002 0.9288163235983209 0.0195582001869396 186 164 153
1.6312732538920249 -0.4297364006756578 -0.0018573749306321 102 93 86
1.6302697844835288 -0.4334375454797542 -0.0034284173840844 102 93 86
0.3614648823761357 -0.7391382338866483 0.0330788669001487 197 165 144
-0.4395298531697076 0.8415739264462951 0.1741802408261354 3 5 2
1.0694519512908032 0.8715666045216924 0.0360102602749556 3 0 0
1.1341308193522246 0.8609015214838612 0.0305896264234343 22 18 15
1.2693398020886468 1.3626030511347449 -0.0146040125658342 189 180 175
1.7656442991283776 0.8654066251129848 0.0350305661444146 13 15 12
1.8305719856679674 -1.3729161940275016 -0.1687013853084436 23 19 18
1.6767832572920374 1.2166196188039726 -0.0100315808624807 136 127 122
-1.0040728231546416 0.1377063640839025 -0.0875490811875103 122 115 109
-1.7540618272723427 -0.6871133888802859 0.0108658450579312 105 76 62
1.6160878823514864 -0.5775050635227992 -0.0046624747913246 148 132 119
0.5928381920975475 0.8950225549084414 0.0225904945276964 69 52 44
0.0986870171466367 0.8294560622488687 0.1812310107923472 226 208 204
-0.8184785044095206 -0.7527022766141260 0.1640008142861960 10 5 1
-0.8184785044095206 -0.7527022766141260 0.1640008142861960 10 5 1
1.6123775607501654 -1.2247521078346388 -0.0065226190947376 136 128 117
-1.1490961319143216 1.2818112770408849 -0.0041502748166685 173 168 164
1.6209907382516011 -0.7926154589859692 0.1915922078587752 7 8 3
-0.4266190747876960 -0.7485115853030193 0.1557710029595618 124 98 83
-0.5117431552978736 -0.7106441236210388 0.0413010651471177 99 76 58
-0.0025223968610278 0.1281663880199554 0.0157616009086413 47 43 40
-0.5356270440190500 -0.7313959001578385 0.0288661733923931 3 0 2
1.7522794371327606 -1.2127804324031499 -0.0039905418403872 141 134 128
0.1353598855794372 0.9017224722100159 -0.0074557932198073 191 165 148
-1.2890363043080189 0.8254910764483437 0.1834068754587436 180 148 137
1.1641702849087461 -1.3482459896881447 -0.0026641761804491 132 127 121
-1.0019860677592756 -0.1873049071975928 -0.0661154882994635 135 128 120
0.0266499434940319 1.3592191399466218 -0.0114422281855360 204 199 193
-1.0029126624451907 -0.0154747534620373 -0.0901534025373035 92 87 81
1.6933768164356358 1.1464809746432751 -0.0047346495762224 125 121 112
-1.6170124703486284 -0.7797876741957626 0.1987408989707223 154 122 99
0.7660990619562231 0.8523885556869513 0.0262778640565224 165 138 121
0.5625996099140201 -0.7544588900234639 0.1563526984076050 134 111 103
0.4999794687600941 1.3254231666993765 0.0069165867545639 186 181 175
1.3963201945034796 0.8638818448840524 0.0347622126662117 150 129 112
1.3407743559291623 -0.7816731050407899 0.1729023363031520 9 5 2
0.5055349872071506 0.2088391460920375 -0.0091976508967256 187 182 178
-0.6297427921488408 1.2763479248378222 -0.0066804150107028 186 181 177
1.1137549065037560 -0.6988207524517936 -0.0095971683493451 176 149 132
-0.2124848268011591 -0.7622278797165235 0.0494236121245670 186 167 153
-1.5684246266572197 1.2636632452077778 -0.0451551425807482 117 110 104
-1.6816719046630781 -0.4538838481614113 -0.0120365453872658 172 165 155
-1.1150025703828281 -0.4170415286590854 0.0054241238259576 192 187 181
0.5950890562019947 0.7925355861305001 0.0664727189735746 18 13 10
1.8241144675689731 -0.7480038695690723 0.1640771454724237 157 146 140
-1.4169554871183150 0.8389180811201773 0.1762620073339179 35 17 7
-1.9866838047764070 -0.7814769251454075 0.0986285630946243 98 74 64
-1.5565794653873930 -0.7892902412586608 0.1652771217251272 181 146 126
0.5176637795232363 0.9409904427859273 0.0029666659328587 46 28 18
0.6102468246434839 -0.9554489692744595 -0.0215006395678282 147 122 102
-1.4518959409827867 -0.7832150617129965 0.0991492977103789 110 92 82
-0.1712991138837553 0.7848112612551521 0.1865330749017759 107 68 39
-1.7074122969940970 -0.6273222837031376 -0.0010385954370791 156 130 107
-0.6382253840457046 0.0824885457642454 -0.0034930490927933 193 188 184
-1.0994897290634549 1.2041134667388063 -0.0054350454460422 166 161 157
-1.5970077325109289 1.2535720273383890 -0.1859571203867383 125 115 106
1.7295394818610301 0.8382411410793965 0.0365844788411690 80 65 58
-1.2293816815134124 -0.7365318918247662 0.0298914348892075 163 130 111
0.6066274007060924 1.0607850301064339 -0.0043158978070972 211 203 200
-0.5946176933132747 -1.2387123378855640 -0.0036983533634797 151 146 140
0.0969826544638213 -0.3899159080835698 -0.0034430619852208 106 90 77
0.0969826544638213 -0.3899159080835698 -0.0034430619852208 106 90 77
0.6070576728018393 1.0925125976180252 -0.0075336935498675 215 210 206
0.4981808213002338 1.2110244124443434 -0.0028920885374483 193 188 184
-0.6561062707310321 -0.7361356054819796 0.1739140040385691 179 142 123
-1.1480205087530746 0.5119672562304931 -0.0011358160374882 219 214 210
1.8212270159393880 1.3142052520210847 -0.0036093520345103 128 113 106
-0.6827157803326296 -0.7870438658551930 0.0989924329599233 146 123 109
0.5909858387454568 1.2754142601675071 -0.0031471679658930 140 133 125
0.5909858387454568 1.2754142601675071 -0.0031471679658930 140 133 125
-1.7758668384815841 0.4138780054847969 -0.0074589890354426 179 172 166
1.7370024226944150 -0.6751157764436404 0.0130036660542983 162 131 111
1.7456813339158801 -0.7550557307107083 0.1648485969407644 154 135 128
-0.0395561091500755 -1.3577146808366183 -0.0042810671297561 165 155 145
1.0890306503683889 0.9404213649390570 0.0026687406552613 25 18 12
1.1069650840775214 0.9570789937397550 -0.0023689988350271 159 138 121
1.8259610521164198 -0.7364093643787601 0.0355601292718607 173 147 130
-0.5953809986809936 0.9593052222147296 -0.0060530324390256 201 182 167
0.6052176143147859 1.3358883511815498 -0.0041927649683607 214 209 203
-0.4424504684666925 -0.4877312226422446 -0.9331888782582648 23 19 18
0.6446222644353357 1.3351691735317468 -0.0044093457555294 207 197 188
-0.4947286396879521 0.9222934800956861 0.0119792603868261 183 157 144
-0.0890968907655385 -0.7550217353767541 0.1709747555117737 98 63 44
0.6274564681010911 -0.7922598012133315 0.1906594440127969 116 79 52
-0.5095157251277070 1.1049678570202330 -0.0023557091826381 198 193 189
1.7690376390239122 0.8282292694650404 0.1809709099841140 193 180 174
1.1857366108433562 1.0260625518287647 -0.0045360252680432 148 139 134
-1.2582470247677948 -0.1445252472910402 -0.0014489274222762 75 71 68
-0.5872496498297018 1.0484637053485419 -0.0066685161979324 200 193 187
0.3626025586745683 0.8248228507945798 0.1808718340794733 166 142 130
-2.0571520933639067 0.7944659716650854 0.1563121055365706 211 194 186
-1.4814251612430822 0.8360409944907312 0.1740015574586959 46 28 18
-0.2328915125975839 0.8699015596529460 0.0186055150487185 34 21 13
-1.0792147921610469 -0.2013494642941126 -0.0068509614804032 177 168 161
-1.9803956219833063 0.8327950791888228 0.1672366270634792 1 0 0
0.0886359064763882 0.8595403078155300 0.0228062525812939 0 0 4
-1.1486433626926034 -0.0917794553248515 -0.0058159309227899 201 196 190
-1.5931404146589254 1.4011043744268470 -0.1574547967052338 3 2 0
-1.1476969504223418 -0.0900650003054395 -0.0062518650239126 201 196 190
-1.7586288962691343 0.3637818157913451 -0.0059168603596552 144 141 134
-0.0581468246728543 0.9378374056708046 -0.0038948280655095 213 196 178
0.6728880386027085 -1.3906305200146052 -0.0022273357551306 154 147 141
-0.0342380446622157 0.9417982132246663 0.0029487681385645 48 29 22
1.7081024702735395 1.1275184361928525 -0.0025652111845499 135 130 124
-0.0334271947432075 0.9417432042131515 0.0024939388319364 48 29 22
-0.6492351020342884 0.8350886851514426 0.1707724598497862 65 41 31
-1.2012367844446254 0.9355498493987600 -0.0027716166859342 51 36 29
-1.2025809322372156 0.9347158549462720 -0.0029734765859220 51 36 29
0.4044811077775055 -0.7889833877438461 0.1882578514768326 98 55 21
-0.5029069532684480 1.3155698270016067 -0.0036426905885559 194 189 185
-0.5979891597147760 0.8361146410212601 0.1755773097548445 66 42 32
-1.7477606308473173 0.7871673725563120 0.1884007208482971 108 67 35
0.5853303449829198 0.8327279179186330 0.1815366629848240 162 140 127
-1.6931961836667204 0.3505720504981847 -0.0035571517695464 152 145 137
-1.1055447723946989 -0.5446709665948268 -0.0015262351973174 182 175 167
-1.6914067504273169 0.3498313266497048 -0.0020900803525769 152 145 137
-1.7736927117312897 1.3924708019444165 -0.0016724913157421 146 141 135
-1.7128251631536986 0.7824571218544423 0.1849044368485487 102 66 42
0.0999783578551931 0.9364731466535972 -0.0010316933051411 57 35 22
-1.9420842876531175 -0.7844425845792256 0.0923865157296445 102 75 66
-1.1434217720598947 0.0247197884917012 -0.0062553495972931 208 203 199
-1.2013458510929556 0.0669726010897991 -0.0031786086976278 208 203 199
-0.5285623560724378 -0.3926749030473130 -0.0028632230193708 188 181 173
-0.5860710137821906 0.0766764390153383 -0.0014219497164177 213 208 204
-0.0459063510236186 1.1299498916785460 -0.0028473882906476 158 154 145
0.0617446673901564 0.1556912101769235 -0.0070870728535796 138 129 120
-1.5997142300721487 -0.7213020425429524 0.0128932295435435 54 37 29
-1.0928270997292651 1.0153089671833990 -0.0053909031049284 196 189 183
-1.3527408461892854 -0.7386565094373254 0.0284122528734495 158 131 112
-1.0735040027821241 0.1711694965718119 -0.0038598288247809 204 197 189
1.7459676723204083 -0.7552875509500179 0.1629318466152631 154 135 128
-1.5224207481715726 0.8248622298686635 0.1613530946715988 9 1 0
0.0017865674753071 1.2066813157342080 -0.0037604040291841 178 173 169
1.0826920831796334 -1.3593490182477292 -0.0089712620393293 169 160 151
-1.7451241025382105 -0.3282448546483314 -0.0159419843306810 142 124 114
-0.6070525415025461 1.2465051682749777 -0.0060902810313197 198 193 189
1.2903976175616698 -0.7559155958415869 0.1713447846838948 52 33 26
1.2902573355995777 -0.7565221522805575 0.1704620148594850 52 33 26
-1.1922282385577818 0.8434055488550326 0.0385310018105260 101 79 68
-1.1930589010850845 0.9226539212589393 0.0082442250981375 182 160 149
0.2490323166636067 0.8720795833851163 0.0201612041359850 41 24 17
0.5312750784282391 0.9267895194007626 0.0147559171785908 152 119 100
1.0518108850181604 -0.7155589139941949 -0.0100030292049555 178 156 135
0.4824620307816395 0.8675430296486183 0.0129417709829047 31 26 22
1.3617884201277168 -0.7759475939013707 0.0393383352078305 160 137 129
0.7172940967044844 -0.7552516898599925 0.1666034215054200 205 179 162
0.8623415907303640 -0.7568930631073103 0.1655582066652410 201 179 165
1.1674137661582653 0.8785215417647922 0.0348704681966602 127 96 76
1.2005649415294692 -1.3182948394090630 -0.0069470940619052 63 58 54
1.6559006896380484 0.7863914087921996 0.2048462167089166 0 2 5
0.0886951617555632 1.3667530023977315 -0.0041540085318673 198 193 187
0.4878772618694235 -0.7196621344675337 0.0168898552542802 40 27 18
-0.5850825400212498 0.0203325413047085 -0.0032092579782479 211 206 202
-1.5843097593649484 0.8895059374466665 -0.0104716881050305 172 145 124
1.7222869801810656 0.8338390757810493 0.1645075065510701 162 153 148
1.7222869801810656 0.8338390757810493 0.1645075065510701 162 153 148
1.6835446902606361 0.9249385328921849 0.0147162476629372 69 47 36
1.8099224679210568 0.9314908145045572 -0.0029131142509645 14 4 3
1.8459575747635706 1.0163256550935249 -0.0052601353335356 171 154 144
1.7662360838658993 -0.7868846869998570 0.1875170205540269 0 3 3
-0.7279509167891202 0.8493760279084470 0.0306864152988369 132 109 95
1.3191093191624073 0.8549480207411666 0.0358949010956408 144 117 106
1.8511915662977745 -0.7525266525742873 0.1476919066739006 44 33 29
1.2087878045758300 1.3142163553733837 -0.0003824189704384 114 105 96
-1.5773474767729749 -0.2273612799776511 -0.1129476695154624 105 94 88
0.1338974002718400 1.3702128092205395 -0.1577894432565645 8 8 8
1.6567397007099247 -0.5577119045785033 -0.0043111315650968 104 95 88
0.4089025990362528 -0.7612294807033377 0.1759745264929926 207 176 155
0.3471782138401238 -0.7314570791026220 0.1598796449583146 43 25 15
1.7331951330337321 -0.5957434435668933 -0.0059838693961860 113 100 91
1.6704048726050322 1.1730006023973392 -0.0016849102284289 107 94 86
0.4690934906326648 -0.7464687029473899 0.1524809503621111 39 26 20
1.7394327449027371 1.2760585936088253 -0.0044931954589832 112 107 101
1.6307725152330630 0.8699942694201031 0.0146823739729031 17 10 4
0.3384315279046015 0.8586868666048530 0.0370964302680747 168 139 123
0.9528561394577866 -0.7461710251058281 0.1561262998989119 84 71 63
1.7722704022417952 1.0007876697779818 -0.0007117280159885 115 101 90
1.2001273487198625 -0.7496334460687359 0.1576801211042387 128 111 103
-1.1728876360829408 -0.7768949463728805 0.0647738773834156 154 125 109
1.8142325804754642 -1.3665648584875445 -0.0194121880926450 123 114 107
-0.6435422550334102 0.3535518432103475 -0.0094090110765075 184 179 173
1.2460245284449256 1.3414077326996199 -0.0081188125789956 168 161 153
1.7550136342838882 0.2946197368541888 -0.0007997457789355 157 152 148
-2.0422650385349326 0.7875782989607928 0.0677445695452137 14 13 11
1.7634114674620460 1.2102129145245104 -0.0085679623228503 111 101 92
-1.6614878628451815 1.4174412044163229 -0.0786728560174401 12 12 12
0.0655365551384869 -1.2378740178128571 0.0067029178207135 164 160 157
-1.1324155362882420 -1.2677763333236747 -0.0094933972312359 162 157 151
-0.5456464113267300 0.0032133918438042 -0.0149335142037633 208 200 197
-0.5336778286573853 1.4152029638920189 -0.0849901645757949 12 10 11
0.5718419723346471 -0.3319317035466131 -0.0220513774266695 183 176 170
0.5907999260118750 0.7775132530427387 0.0530258943159934 18 13 10
0.3015945133767295 0.5785238452684103 -0.0966427883767284 18 13 10
-0.5642479081989088 0.3728511993834486 -0.0030069711011522 215 210 204
-1.7595504664630506 0.0264774547888030 -0.0063838680349174 111 101 91
-1.1153060180692733 1.2118296692760351 -0.0088769246168070 197 192 188
-1.1791688907814408 0.8378197032128476 0.1770415811692208 64 37 28
1.0523642911144815 -0.7781951181449978 0.0563367082279193 198 178 171
-1.1975639424336990 -1.3115348486345466 -0.0071547544488895 179 174 168
-1.1950839241052398 1.2620838297595631 -0.0023570738340206 166 163 158
0.8152154255624382 -0.7348707737762206 0.0299658114217605 185 150 130
-1.1905686990110178 -0.1408444896632767 -0.0045725344528156 192 187 183
-1.1755505003415765 1.2772701940091604 -0.0020413415053784 200 195 189
-1.9024944458998589 -0.7796258874264907 0.0989546788718583 98 76 65
-1.8329685805415343 -0.7806069078913389 0.1037159514518036 100 76 64
-1.0963124124502492 0.8389257648180082 0.1761226841779061 56 34 23
-1.6892704927210251 0.0733889351315852 -0.0050607814706101 181 176 173
-0.5878593099062388 1.1189857100381124 -0.0054322486849427 149 140 133
-1.6018029361699226 -0.7818199980388298 0.1056894758900970 91 71 62
0.0724138328936179 0.2184521950292430 -0.0048750419335182 176 169 163
-1.4874487342364560 -0.7812448883207933 0.1040402304629772 94 74 63
-1.0379037192922111 -1.1800258427419741 -0.0360807439408596 123 86 60
-0.9794740057399008 0.8366143324645470 0.1723892856948930 64 40 28
-1.7705986356995074 0.8766074286035315 0.0149820415146223 29 24 21
-0.5466139905209283 0.4478446675071008 -0.0034831949267018 184 171 163
-0.5962548118951388 -1.3334498052254462 -0.0057152438913879 150 143 135
-0.5468060999065461 0.4480877366335077 -0.0040925573758826 184 171 163
-1.4076267928991046 0.8294152323791898 0.1872715198815125 151 113 90
-1.1870689703709933 -0.7900232010542571 0.1006698462755522 109 85 75
-1.1992827912455912 0.5052136583576411 -0.0025165156033435 194 189 185
-0.8430598931126084 0.8337135860321316 0.1705296672729367 46 29 22
1.4357111497347419 -0.7693753536446020 0.0385152427033002 164 136 124
-0.8121852822996440 0.8365080382636352 0.1725186392550749 44 25 18
1.1587841514464341 -0.6990954687532169 0.0208054671150629 183 147 125
-0.6421578123731263 0.7595667595794112 0.0418745104768431 102 84 74
-0.4784504795249002 -0.6743390854408542 0.0362749885971085 188 159 143
-1.7551650652769442 0.9337956310680013 -0.0027539873309075 43 32 30
-0.4502411563576055 0.3677206970107015 -0.0047887623974708 155 146 137
1.3641754314027865 -0.7107019991767173 0.0333255459994604 6 1 0
0.5545768475071113 -0.4966657742172242 -0.0027812586594366 194 187 179
1.6137365400828922 0.8820256525000504 -0.0094519963471957 153 122 101
1.4023426785741517 0.8401358070035975 0.1441732796059062 17 12 9
-1.7088551933423470 0.2794174848555506 -0.0042623337456765 198 194 185
0.6131256226925237 0.2999628459434355 -0.0036946151704703 88 74 65
-0.6085147656296962 1.3554936280111061 -0.0034759741911791 206 201 195
-1.7097722000072224 0.3248796851419248 -0.0057128804922926 200 193 187
-0.6081185124761972 1.3556918041261645 -0.0034577511482540 204 197 191
-1.2249099962513812 0.1805037720479553 -0.0044033302183070 169 159 150
-1.6375150967432903 1.0420892152451819 -0.0049713424538101 171 157 146
-0.6276584191852765 -0.0038476691322978 -0.0042816512442410 203 195 192
-0.5752610443623865 0.4810616051319503 -0.0079588272695564 146 139 129
-0.5793854862120780 0.4997800054167040 -0.0017093326350669 130 120 108
-1.1112284886973673 0.1898813139146698 -0.0046886932816160 154 147 141
-1.6724896223446324 1.0759027135673009 -0.0049979087810192 179 170 161
-0.4714857785830114 1.3440835667068740 -0.0002672746857185 192 185 179
-1.1125573366125519 0.1880956020002143 -0.0038677292673029 171 166 162
-0.6343060666370268 0.0460547146482791 -0.0040110136044654 196 193 188
-1.6724919205866648 -0.3527466295915271 -0.0057464972950775 134 124 114
-0.6343060666370268 0.0460547146482791 -0.0040110136044654 196 193 188
-1.6723794034191273 -0.3528337798126835 -0.0067350352071615 134 124 114
-1.2052182691567641 0.2307898084439323 -0.0046287494236852 189 184 178
-0.8515213659535774 0.8706143248935055 0.0188849347501142 26 12 9
-1.1472900130258723 0.9678617659939449 0.0073375570135992 176 155 138
1.2003866642489434 -0.0240689658770529 -0.0011405225647735 155 142 134
-0.4373735620784591 1.3999397636370730 -0.0052199365552172 201 192 183
-0.6564846193441333 0.5088845519097589 0.0055342528470319 202 193 184
-1.7451618476388173 1.2020979888157806 -0.0036613418271639 201 196 192
-1.0896831640908831 0.2418998732227810 -0.0060785263466752 206 201 197
-1.7271757865302413 0.4768228592432271 -0.0037079483782723 176 167 160
-1.0915721859405005 0.2773349036720872 -0.0044561329745865 206 201 197
-1.0910660044056235 0.2767021135980383 -0.0051623810000258 206 201 197
-1.6524874478346505 1.2162276866914494 -0.0037813790661727 172 165 159
-1.0731732058861594 0.2674695436623312 -0.0055222260261604 179 172 166
1.2319276983091312 0.9334504248157296 -0.0034055296097004 29 16 8
-1.6418424240448384 -0.7914117044090663 0.0851338939814654 110 83 72
1.6468301580274800 -0.0623835497867278 0.0002654299691261 158 153 147
1.6953188721700951 -0.7506840841199223 0.1823422444237648 183 161 150
-0.3201614819688806 0.7536196167073533 0.1997397466107219 197 190 182
-1.6554887304097847 1.2642329856978882 -0.0043708620427506 183 178 174
-1.0376846495763195 -0.4224213549549513 -0.0030623923988184 177 167 157
-0.6253938364480689 0.9361917288564818 -0.0030012813401794 54 35 28
-1.6942340361236417 1.2810910829644686 -0.0049246316764551 181 176 172
-1.2321254918522799 0.4106306769967004 -0.0054418783819356 134 125 116
-1.2161995002882429 1.1350072293289262 -0.0048960214694190 202 197 193
-0.0793413013029222 1.3791445378785774 -0.1593788270263440 9 9 9
-1.2171128385591410 1.1376758837834944 -0.0034256668329243 202 197 193
-1.7438603364502743 1.3047471476056718 -0.0043409812271317 196 191 187
-1.6589430705566177 1.1329662209571094 -0.0021694936981170 182 179 174
-0.5923526086707132 0.2819112681109337 -0.0041605845332328 209 204 198
-1.4512315704850258 0.8310247520999894 0.1694734181884134 44 24 15
1.0646935668800073 1.2584177632597882 -0.0047860025953568 162 155 149
-0.5648506056271394 0.3126951512523873 -0.0047368803053018 220 215 209
-0.5191244888180779 -0.5333499605536871 -0.0018579247644229 171 162 153
-1.2426344782233145 0.8303534066756872 0.1864250115487788 175 143 122
-0.5561206975662867 -0.5113662668320939 -0.0048454244376499 161 152 145
-0.5300634489527666 0.3360676844229252 -0.0036898664171777 218 213 207
1.2036493372147301 -0.7543870271452244 0.1702461846920046 55 30 23
-1.0943115242758812 1.0464790373505359 -0.0021344742098104 201 198 193
-0.4706267541115779 0.3409321324469371 -0.0030246822932553 205 200 196
-0.6231006667432480 1.0370729487646466 -0.0030463139502204 193 179 168
-0.4340853474875875 -0.4721120789759592 -0.0052051226165772 200 188 176
-1.7121649596189652 -0.0397180460278022 -0.0028628729943697 180 175 169
-1.7116833333357808 -0.0419455969155355 -0.0043828079849396 195 188 182
0.5394384658400672 0.8320849101687354 0.1691430732989260 44 27 19
-1.7103921733339584 -0.8560050912832021 0.0510281900764552 94 65 57
0.7537751230037320 -0.7321570689761978 0.0331202078201671 189 157 142
-1.7436231862727183 0.0863409580409679 -0.0052885487036396 180 175 171
0.7172224552277497 -0.7558344917821891 0.1657032257982832 205 179 162
-0.5466476688110462 -0.2575642610499477 -0.0044392253608975 164 154 144
-1.1193436073992042 1.2943203743584537 -0.0041690882260557 194 191 186
1.1919111998393292 0.4730973051153889 -0.0052678497753418 168 164 155
0.1333792029003563 -0.7106615433944825 0.0264695417221423 53 33 22
1.7597860929122837 0.4020585833783447 -0.0050497224668323 118 111 105
-0.4786848113257515 -0.3626766821950314 -0.0030748099631061 193 190 183
-0.5674019090901914 1.2367326796239519 -0.0030260906794060 200 195 191
0.0886025366489856 1.0277310942312996 -0.0034809077895069 182 173 166
-1.9814135761551825 0.8207877158779645 0.1845638106633919 156 117 88
1.1665674306188811 1.1304471258313029 -0.0026456804757481 168 163 159
-1.7035478411103409 -0.7869081640952527 0.0753084259915119 117 91 78
-0.4781770639269654 0.4120762022175453 -0.0004935654951265 202 195 189
0.4846664775159438 0.8669990353401232 0.0108198594791922 31 26 22
-1.1184262080794380 -0.6934543875130871 0.0168793467789262 175 139 117
1.8368092424492812 0.8712077107177588 0.0168604043700710 5 10 6
-1.2439887321828211 0.8534357630792424 0.0365547510682813 118 94 84
1.7651583499091146 -0.6392940120385813 0.0241399034954610 165 136 120
0.4840603616598076 -1.3558450311362313 -0.0069853071042809 133 126 116
0.0430309356399291 1.1594930728604100 -0.0018687864784134 192 188 185
0.0430309356399291 1.1594930728604100 -0.0018687864784134 192 188 185
-0.6018461347109022 1.3965854081596918 -0.0060737350444230 203 198 194
-0.4549530948889926 0.8724402765666360 0.0173388181239116 37 26 22
0.1297776027234306 0.3007738223671831 0.0066916415620984 255 255 255
1.6608539914621172 -1.2967634796800178 -0.0081041908715992 100 90 81
1.0547908941601249 0.4406607628442739 -0.0435309789792941 157 152 146
1.8601239140134422 0.7987592492862268 0.0724238884447881 12 8 5
-0.3680755775278656 -0.7457943348317316 0.0697922191633683 177 155 144
1.0818840545568162 -1.2594070315675601 0.0007284995735808 168 159 150
1.8305156309504886 1.2223175749511002 -0.0051238954189935 163 159 150
1.8113350400984514 -0.3367848320167307 -0.0128579368504472 135 131 130
0.5753984162481486 1.3455321909887932 -0.0911292126813368 11 10 8
1.1357519999527008 1.3798435331493797 -0.0910710372181289 12 12 12
-0.8343793681848319 -1.3186180043179287 0.0188844983832894 71 71 71
-1.1047156607775721 1.3671982102475972 -0.0809728525797170 9 9 9
0.5757946817881323 -0.3241573393493006 -0.0136367887098095 183 176 170
0.0169382705419274 1.3853967539676586 -0.0817703079325394 8 8 8
1.1423332233061827 1.1140723845783542 -0.0635013152913252 173 168 162
1.1423332233061827 1.1140723845783542 -0.0635013152913252 173 168 162
-1.1283794374222365 1.1375700963097353 -0.0151297950853466 202 197 191
-0.5374514763450401 1.1653135438610338 -0.0103121186447173 175 170 166
-1.0435234958621336 -1.3851839826898302 -0.0024396357077191 146 139 129
-1.7207811923713285 -1.3367322548089935 -0.0046642783453089 131 126 120
-1.1692208153398700 0.9567136963339591 -0.0022225788013851 198 184 175
-1.1999613013919179 1.1136519036026313 -0.0036365968738949 194 191 186
1.7597985222619950 -0.5378163351300751 -0.0132966697694081 108 99 92
-1.7823977457104516 0.9939996008823804 -0.0047889094274635 172 161 155
