ply
format ascii 1.0
element vertex 691
property double x
property double y
property double z
property uchar red
property uchar green
property uchar blue
end_header
-0.0396377250627178 -0.1077428041760450 -0.0002578070008816 203 203 203
-0.0342614572875269 -0.6749681022728122 -0.0159752452879845 79 74 71
0.0164948139886097 -0.0286292542731144 -0.0162020029488835 20 15 11
-0.4607249091815411 -1.2111609294990231 -0.0088080759817406 14 13 11
-0.1034596892373121 -0.1887530652708033 -0.0027718196329421 208 208 208
-1.1463907439861147 -1.1047805379066313 -0.0226821782206212 95 78 70
0.5894534166989966 0.0552697746465719 -0.0191375882127307 28 20 18
-0.0377244133148966 -0.5101329441115777 0.1064972181516725 58 58 58
-0.3272482248749946 0.2890988580729964 0.1780485553542302 55 35 28
-0.0328299690170767 -0.5153514998187254 0.0965345491924823 13 13 13
-0.0778373739111218 -0.1592278303139522 -0.0003412373374243 203 203 203
0.4773079732804494 -0.0965948756755111 -0.0143395262765665 51 47 44
0.5102330578433494 0.2128842843428545 0.0110172461585307 66 49 42
-0.5577900234172051 0.2300778013426478 -0.0153490737419642 86 70 57
0.5335952593353182 0.2294107774644032 0.0208120446529876 75 62 56
0.7714370779163752 0.2407495512402967 0.0018642436454683 58 38 29
0.5833351061170977 0.0121835001926627 -0.0147405817777877 79 69 60
0.5528497546895087 -0.0244064112483704 -0.0169677177287182 69 65 62
0.4716846583865460 -0.7656596274827330 -0.0217705076081900 61 57 54
0.8033742336544561 0.2533254003519706 0.0164630506034140 59 39 30
0.3999500522281338 -0.2147684047900794 -0.0161958336050958 70 65 61
-0.0362207326917241 -0.5743774258238682 0.1405369494048794 59 59 59
-0.5565654983340507 -0.6114670859827753 -0.1577369948442865 35 31 30
-0.3049492490703464 0.2880846027310509 0.1762556701496713 50 28 17
0.5745510471441371 0.6325887030442091 -0.0210673339427299 56 53 48
-0.1212497188243129 0.7485327330819495 -0.0144315586963681 53 48 45
0.3489101592651539 -0.9412919043577855 -0.0142328675152059 66 59 51
-0.0737837869975065 -0.1887853644977958 -0.0027052152834539 203 203 203
0.5140250767899788 0.5362750174283747 -0.0148384383402679 34 29 25
-0.5539224222184955 -0.6303539377351757 -0.1817898996808345 29 25 22
-1.2670197168691684 -0.9791953344882186 -0.0204678444356167 46 43 38
-1.2670197168691684 -0.9791953344882186 -0.0204678444356167 46 43 38
0.0258128767031404 0.5801089071462462 -0.0180147766928311 97 77 68
-0.1839689757246261 -0.9298787269481846 -0.0167413225333682 71 68 63
0.5485497100810754 0.5370766631074809 -0.0150139065135710 67 59 56
-0.1088476660553375 -0.2642855431478247 -0.0171855365380897 42 41 39
-0.6039968885561625 -1.1486361653093811 -0.0125253417231632 19 21 18
-0.0414182872380279 -0.7659344629317820 -0.0152811071547349 86 81 78
-0.5547128728404035 -0.6540305870228557 -0.1839047454693685 26 22 19
0.3407102346371177 0.6547804739544091 -0.0171700377379297 73 73 73
-0.1918146664570215 -0.9520696669258037 -0.0150284584755503 95 82 73
-0.5560304764446845 -0.6654570174588873 -0.1874549552535205 28 23 19
-1.1503730637734197 -0.9706976254951798 -0.1996969920502000 34 27 21
0.0279195473588255 -0.6359316419955584 -0.0841533494608937 22 18 17
0.3505086655254913 0.2422551465638081 -0.0041178505753551 48 31 23
-0.6039968885561625 -1.1486361653093811 -0.0125253417231632 19 21 18
-0.5561703559968668 -0.7004678201864956 -0.1857882896867444 14 10 7
0.5766634103440169 0.2515429197638392 0.0245039416766835 79 61 51
-0.6206748981375778 -1.1978379931834844 0.0142924206010525 34 23 19
-0.0115466099451212 0.2126660709563881 -0.0168079105193296 71 53 41
0.3653449180428382 0.2411689249822699 0.0007860426976214 38 27 21
-0.3688490096305760 -1.3141740134527462 0.1795896202508518 65 42 28
-0.3688490096305760 -1.3141740134527462 0.1795896202508518 65 42 28
-0.5926746187957757 -0.1710269435329995 -0.0208118395411128 48 48 46
-0.7617854617455626 -1.1244940613745258 -0.0172392994154281 70 57 48
0.0314880300049244 0.5852406770507843 -0.0227167422934569 28 20 17
0.0242998088421438 -0.7216124743254836 -0.0189449044376994 105 88 78
-0.6019804065874026 -0.2066435262419505 -0.0181785060888400 83 80 75
-0.5636843488353387 -1.3621497840488246 0.0125061863273768 121 104 96
-0.7499891114099585 -1.4007394988397974 0.0060951925706792 110 91 85
-0.0037317340856591 0.7981180860686320 -0.0182950536054523 55 51 48
-0.5544389622139054 -0.0180539449749462 -0.1577815648739499 17 17 15
-0.1841543666695203 -0.7191338124175735 -0.0141729963010898 64 61 56
-0.4055063498885406 -1.3028928002846758 0.1793524465565294 66 43 29
-0.6480072346848500 -0.9959145517650488 -0.0192765005260220 69 64 60
0.0272260605941733 0.5173426487465721 -0.0182835388460149 81 64 54
0.8376510982886421 0.2994059691730866 0.0426345184384626 49 38 32
-0.6441649867332946 0.2624322567096888 0.0191520751098574 64 55 50
-0.5558683256677606 -0.1124989688951800 -0.1098464793320741 41 37 34
-0.7339518826774746 -1.4016319690169994 0.0035009975772864 115 100 93
-1.1439231129791505 -1.1699050917181248 -0.0207836015368923 106 89 81
0.5816527242506248 0.2053972546531441 -0.0216312107772090 82 64 52
-0.1406498863797500 0.8923753869874205 -0.0196828131043291 44 35 28
-1.1411131188743842 -1.1673520552402474 -0.0290753648742105 41 27 18
-0.7082540182043506 -1.0809196353372628 -0.0180198540250308 55 44 38
-0.7080850437803118 -1.0810379239078054 -0.0173913787163068 56 45 39
-0.0169804657730370 -0.2437942779964367 -0.0166468401774811 51 47 44
-0.6654583782627888 0.2049747826220456 0.0017073270514836 74 55 48
-0.1897183226632372 -0.4282666869274345 0.2807819237280025 107 107 107
0.0219833734954358 0.7816680367868322 -0.0233816822995914 91 77 66
-0.0025329435243408 0.7344545780795274 -0.0171385147746434 45 40 36
0.3988680386281885 0.2126386702610804 0.0087414864504078 77 57 46
-0.1219271958783750 0.0176512587064714 -0.0093186334065372 57 56 52
0.0268189439830105 -0.1943063543764676 -0.0568656929659448 40 35 32
-0.5077311854913239 -1.2866947950958219 0.1772015562714125 48 30 20
-0.0363184559889750 -0.5407150305350741 0.2242352573608353 23 23 23
-0.5551169489219981 -1.4190779480217039 -0.0871583420139946 19 15 12
-0.5633347870049848 -1.4853159618468066 -0.0097886193385192 60 49 43
-0.1859938769320375 -1.0231305749613981 -0.0166061190198812 66 59 53
0.5816646184806923 0.1667214890441112 -0.0175616351211933 82 62 51
0.0238764035489757 -0.7565186521197247 -0.0345048315875076 27 19 16
-0.6200669820586082 -0.3190805336176546 -0.0180375427866907 85 77 74
-0.0809338070646227 -0.9071517393723213 -0.0145786589431390 61 57 54
-0.0707867235892431 -0.6502782281044880 -0.0088043668431421 66 61 58
0.5823487251759201 -0.0133081267249947 -0.0173709071608797 77 64 56
-1.2239453560449367 -1.0672096710789740 -0.0203587620538562 47 42 36
-1.1429835327151019 -0.8415762187522842 -0.1385257456751130 36 31 27
-0.6262715168270098 -0.3467740735777625 -0.0183723105068358 54 50 47
-0.3453673819583413 -1.2818079253737715 0.1767816223851745 59 37 26
-1.1442066065287122 -0.9686567604242983 -0.0319913386304028 36 29 23
-0.1763689966928013 0.8161020150487277 -0.0186975537504827 44 40 37
-0.5582539802635077 -0.1388218674688277 -0.1506140880186652 33 29 26
-1.3121719732567017 -0.5718213303809293 -0.0192726454686260 63 60 55
-0.1011678866794492 0.2249610602110577 0.0122251059113039 60 42 32
-0.1017191013695721 0.2256886573306095 0.0104551436884360 62 43 37
-0.1206191278019693 -0.8959519194724238 -0.0158102431169768 42 39 34
-1.1412895207469824 -1.0000907161709016 -0.0272148979702796 47 38 31
-0.7727902599593359 -0.5606275429466869 -0.0185516059063017 53 50 45
-0.1528367098182101 0.8228075597113828 -0.0184521194495622 43 40 35
-1.1400623461471464 -0.8287747733146836 -0.1894693785541721 32 27 23
-0.1844399086446121 0.1456754708534501 -0.0162989879673607 63 49 40
0.5889090612293826 -0.0376531020512385 -0.0209550824830338 29 24 20
-0.3970478690112694 0.2791859895455801 0.1682573266541477 90 71 64
-0.3970478690112694 0.2791859895455801 0.1682573266541477 90 71 64
0.1243728208004186 0.2956797662464166 0.1773166458727639 44 24 13
-1.1422531629389929 -0.5372471253370695 -0.1592190012376720 24 20 17
0.8534470474365455 0.2417384824384842 -0.0000333467133830 54 37 29
-0.6874602398936662 -0.4910018166386939 -0.0164486867450698 85 80 76
-1.1422531629389929 -0.5372471253370695 -0.1592190012376720 24 20 17
-0.6607274206185035 -1.4020870898046212 0.0036334495481127 103 84 77
-0.7653566973648718 -0.2474574630953229 -0.0182063092577934 72 68 65
-0.6596067687298000 -0.4594808606824304 -0.0176208182098312 106 99 93
-0.5551632516030814 -1.4497929468465494 -0.0903399764206928 27 22 18
-0.3614304144972891 0.3037017313426517 0.1756007435075373 51 32 25
-0.3612918652893265 0.3034415036291576 0.1756136855817172 51 32 25
-0.0255858466636993 -0.8697062236544753 -0.0150103365553522 9 8 6
-0.0753343777206918 0.0348154990039041 -0.0163271931045317 64 59 55
-0.0255858466636993 -0.8697062236544753 -0.0150103365553522 9 8 6
-0.0793251780291651 0.8845009416407715 -0.0190982916529816 80 77 72
0.5830632391189531 0.0910431620769127 -0.0131353234150012 71 58 49
-0.0807513221048207 0.1957878887952482 0.0014907500809884 89 71 61
0.9118530830054784 0.2423980430154365 -0.0016060869198757 47 29 19
-0.0613083201160157 -0.9338152320307551 -0.0144973630746078 58 57 55
0.5890715465772919 -0.1487498502832746 -0.0202814458587184 27 22 19
0.5891603224242203 -0.1589087356366545 -0.0176437002879807 32 25 19
0.4705742479800295 -0.0596471168375038 -0.0156773735536703 77 73 70
-0.1874198910985264 0.0846860378081029 -0.0176237551107769 87 73 64
-0.0833479347749726 -0.9186489489121130 -0.0161912065436380 69 65 62
-0.1874198910985264 0.0846860378081029 -0.0176237551107769 87 73 64
-0.1625310904525747 0.7670893642475025 -0.0187808779681940 45 42 37
-0.2616100456604453 -1.2686001767396515 0.1780669746337001 58 36 23
-1.1435976239026828 -1.0216380908079878 -0.0707652030766951 26 22 19
-0.0911362907217378 -1.0170632378432372 -0.0148285364558365 60 53 47
-0.2615440874162422 -1.2685700011745613 0.1778286960543405 58 36 23
-0.2209539904585822 -1.3134243352973112 0.1824716245068799 54 34 23
-0.1777112351818108 -1.2631039930564301 0.1784056431602464 64 44 33
-0.1842589065861788 -0.8718744388858726 -0.0341956668385681 79 76 71
-0.1863979068930742 -1.0482303873441619 -0.0151309182571956 59 50 43
0.3663863670367182 -0.4899397557649802 -0.0171617116851332 78 73 69
-0.1635162282935950 0.7090134833617980 -0.0169476745986833 51 46 42
-0.1646801072004973 0.6963230913171695 -0.0182454046371656 37 32 28
-0.2737921398324195 -1.2940468413830390 0.1778009930023246 57 37 26
-0.0456782634211606 0.8449968722879120 -0.0271504977876942 51 46 42
-1.1434878245471205 -1.0825567323484384 -0.0193539635199481 106 92 83
-0.0648634954722477 0.8058509604424953 -0.0187572062009802 58 54 51
-1.1422108450604036 -0.4913229234937077 -0.0327923385074970 27 22 16
-0.7519150975254285 -0.2360065242443583 -0.0187270055987488 32 27 23
0.8492215840338215 0.3017485510054076 0.0414324615764688 49 38 34
-0.1691011357979637 -0.1674507454112089 -0.0004830368487770 205 205 205
0.0251507354200563 0.0818402932768624 -0.0165291357925986 103 85 73
-1.3767469982428662 -0.9986303898367507 -0.0215674376441415 43 39 38
-0.0383409721534754 -0.0113540439850680 -0.0001779581837412 200 200 200
0.0241301682542964 0.8917830157081694 -0.0173991220984548 95 86 77
0.4475758864130323 -0.4066244603443316 -0.0145840523249826 47 42 38
0.3870072376945233 -0.4882961746460228 -0.0139847323068475 94 90 87
-0.4009553566394090 0.2987076050374000 0.0412293666591845 68 55 49
0.5169001413337263 -0.0754003952226250 -0.0130475530071926 74 71 66
-0.1347706254819694 -1.2693988622754389 0.1787204106314206 62 40 27
0.0172451592230210 0.8568243131579012 -0.0193768992816384 39 36 31
-0.6943604223409855 -0.0232211615306572 -0.0182290069257239 103 96 90
0.5818958446041093 -0.0397893192782055 -0.0135757017436415 75 64 60
-0.6478753412317989 -0.7783183521444975 -0.0159971078016731 35 30 24
-0.0131461079777762 0.7877958857440824 -0.0167342622727826 24 20 17
-0.2123507799339885 -1.2824119402314809 0.1778434613992735 37 19 9
-0.0990165505037146 -1.0213859457541914 -0.0165177705996495 40 35 31
-0.1811907034216866 -0.9970732685308946 -0.0157509077174929 73 66 60
-0.2198628443346861 -1.3007055873206279 0.1778576730530457 30 15 8
-0.5601055156617698 -0.0772827743762780 -0.0195711554636578 95 85 76
0.4936679337245820 -0.3544802502839333 -0.0168893449333455 43 40 35
-0.2022762064777250 -1.3271240037720029 0.1698742702869521 110 88 77
-0.1849077638403971 0.3030093921282314 0.0236680859593676 58 47 43
0.4430767524302646 -0.4319655712803085 -0.0149528852918763 56 51 47
0.5813620205183775 -0.2663929507798439 -0.0141521582058124 76 62 53
-1.2627532398176471 -0.9623380825007563 -0.0171320356658466 50 47 42
-0.1670179390620956 -1.0406748762473330 -0.0153183291075380 52 47 43
0.5878342472369982 -0.2604500119599529 -0.0204406585087401 27 22 19
-0.8796371524621887 -1.2648735026192413 0.1752689957103460 36 23 17
0.3809559689620439 -0.5330803350927891 -0.0155242573273084 77 73 70
-0.5578540758619518 -0.1233384944194419 -0.0350389020801888 33 29 26
-0.1692866330428864 -1.3270237849862752 0.1705702450691077 94 74 65
-1.1537759952231681 -0.8920689957177617 -0.0137733461104185 62 57 53
-0.5559956238349357 -0.5816453045107952 -0.1555307594688152 36 32 29
0.2527551968061514 0.2404986730445961 0.0021473150007679 58 40 30
0.5814579632307316 -0.1781249580483609 -0.0157373045310241 78 64 53
0.3972111743319134 -0.5376732025607699 -0.0147243957090512 77 72 68
0.4202636013211332 -0.5234811260723605 -0.0086076949454393 73 68 64
-0.2003431139915646 -1.2621466586732346 0.1767580318005196 53 33 24
-0.2005015228816691 -1.2622817718465380 0.1771505349791344 53 33 24
-0.1748608494938725 -1.1131295675915465 -0.0153794557770121 66 53 45
0.5717036568703037 -0.3442183620269977 -0.0131113213944163 67 59 56
-0.2091937020915829 -1.2938923627113763 0.1787742923460292 57 37 28
-0.0679367376641070 -1.2644424999486292 0.1781032398600758 59 37 23
-0.1052483172533949 -1.3185048393635803 0.1768531864157900 40 22 12
0.5833087115219905 -0.3710470541716593 -0.0140929984498597 94 77 67
-0.5555292002992017 -0.1681135285290319 -0.0318082308677291 29 26 21
-1.2429215791500006 -1.0189129274329238 -0.0182125160895717 86 81 77
-0.6860726033536462 -0.8940924782401825 -0.0121656915366765 70 66 63
-0.0663714912428008 -1.3035008356804278 0.1770665788556026 47 27 18
0.0288805051984518 0.0619655226266846 -0.1135518549146419 10 6 5
-0.1890528910168632 -1.1628899485583704 -0.0156030095422761 63 46 36
-0.0313448348475332 -0.1212884141279602 0.0004012076359716 75 75 75
0.5878826064248081 -0.3922013931113831 -0.0253641363888856 31 26 22
-0.8319271595278945 -1.2648255559167139 0.1764598058685569 35 18 10
0.5842728367996048 0.6279701124148859 -0.0144954022526540 82 71 65
-0.0384859100348593 -0.1459238482399543 -0.0002086064667488 203 203 203
-0.0387797466400496 -0.1462569204561792 -0.0002800448630090 202 202 202
-0.6053020601108943 -0.8760530248264526 -0.0169434127225369 82 79 74
0.0218745180825445 -1.0774181938055494 -0.0696983195394520 33 28 24
0.5880635064075992 -0.4190482016854593 -0.0243361060047174 32 24 22
-0.1777511274367925 -1.1766071173152579 -0.0134911017287552 72 55 45
0.0074247720820190 -1.2757131201605665 0.1781284826365072 64 46 34
0.0075112668106790 -1.2757366486429895 0.1783632762681283 64 42 31
-0.7179995168768799 -0.4365918782954300 -0.0169909861674334 91 86 82
0.4407373894386465 -0.4661683429567188 -0.0183563240141668 64 59 56
-0.0709824737652410 -1.0925217369994251 -0.0170408698744307 56 47 42
-0.0203887902893307 -1.0318989746853418 -0.0153386924749047 84 79 75
-0.1403752900351133 0.2141443623865175 0.0067923230510601 81 62 55
-0.0516733527496200 -1.0889428881019034 -0.0166422332747102 62 52 43
-1.1738656105976040 -1.0461962448548603 -0.0189310509414672 61 56 50
-0.1097516776856401 0.2049612697844687 0.0023700284927027 72 54 44
0.5595426732846556 -0.3946758928755101 -0.0161459833606112 49 46 41
0.0195100730970930 -1.0676854112268799 -0.0202249233668123 92 75 65
-0.0868767467042610 -1.3181100398849777 0.1809903375580793 44 25 11
-0.5734793191282274 -0.3750034653368658 -0.0192780844413343 49 42 36
0.0263360290879950 -1.0881757597665456 -0.0298422337454865 28 21 15
-1.1667473268692947 -1.1125523768636312 -0.0172420251628698 41 31 22
-0.0287198888395653 -1.1981446315600213 0.0151666616378534 31 23 20
-0.0138284900241059 -1.2071616374751868 0.0163373127586067 46 33 25
-0.0254599682770184 0.1751736320012076 -0.0009581024631598 94 71 63
-0.5572449278326042 -0.4493998827879492 -0.0324001497428378 35 32 27
-0.0860510698069164 -0.3899009493724191 0.4543921435219099 66 65 63
0.0276403002568516 -1.1671831123855472 -0.0267942866582911 37 27 18
-0.7162100008285004 -0.6800489975413793 -0.0189015823686573 75 71 68
-0.7725991145933511 -0.7513716771301033 -0.0177200106289930 68 67 63
-0.1751080283327770 -1.4603702469031472 -0.0144950017122386 90 74 61
0.5068165082436364 0.7712648763147202 -0.0143804802189717 86 81 77
0.5620353430349124 -0.5868428310387678 -0.0157192194933256 46 41 37
-1.1422836457921315 -1.1613055356941844 -0.0977030662487878 17 12 9
-1.1422836457921315 -1.1613055356941844 -0.0977030662487878 17 12 9
-0.1888989118174185 -0.1146266815511151 -0.0024337347081425 202 202 202
0.0989551721458854 -1.3056971359725964 0.1795558508343658 46 26 15
0.4434223930764515 0.6676517560371511 -0.0148883304729161 96 91 87
0.4433578552969433 0.6677327153984502 -0.0150503686794703 96 91 87
-0.6750623960409220 -0.6926911109532741 -0.0187098524556549 55 51 48
-0.1585175270496635 -1.5868594105960345 -0.0092354985074308 66 61 57
-0.1781994684120825 -0.1264369917747854 -0.0010261085220256 101 101 101
-0.1780644823338871 -0.1263617797539548 -0.0006797431968679 101 101 101
-0.1781771766063783 -0.1263789802099231 -0.0010210631249237 75 75 75
-0.1892239414632864 -0.1443669723580327 -0.0021209803612116 202 202 202
-0.1651016832480539 -0.1214560855637876 -0.0008609501629323 197 197 197
-0.5546464161846772 -0.5770428799710133 -0.0298277613889559 27 22 18
-0.1890248199066895 -0.1671779843809012 -0.0021045926330825 204 204 204
-0.0573789770877720 -0.0255362726687015 -0.0006606820293218 205 205 205
0.5666470348348402 -0.2079763329240259 -0.0167923162636620 37 34 29
-0.1566208238031941 -0.1547245658083738 -0.0007040772494392 74 74 74
-1.1392213664277411 -1.0688407330293397 -0.0894210068988583 44 41 36
-0.1372049215555743 -0.1375894892503925 -0.0006175002842593 30 30 30
-0.1371868028827150 -0.1375338255152717 -0.0004819900718890 70 70 70
-1.1406345055192906 -0.8292945349597107 -0.1191484604575651 20 16 13
-0.1283798108446166 0.6659478060768604 -0.0172882489453602 50 45 41
-0.1413158414242786 -0.1345086625274147 -0.0083841521114261 51 51 51
-0.4374516931235103 0.2721693881644356 0.1495351861049329 62 39 31
-0.0252660425149215 -0.9347109930392559 -0.0220097893430767 16 15 13
0.3521185968015497 -0.5411904392172381 -0.0153718233990568 70 63 57
-0.0285607388633824 -0.9347158304266014 -0.0164226390449240 26 22 21
0.5798112232043638 -0.2029105244063503 -0.0152238668345260 78 65 57
-0.0872460628211285 -0.3999859633129593 0.4583819982016396 87 85 86
0.5441540342274408 0.5244989460283093 -0.0188201001181663 64 55 50
0.5441540342274408 0.5244989460283093 -0.0188201001181663 64 55 50
0.5802418375574349 -0.2422373755793773 -0.0147992456073292 84 74 65
0.4192154021432775 0.2889280174774531 0.1823647931327675 50 30 19
-0.1300543852414295 -0.1995012704851149 -0.0194774249671898 58 54 51
0.4046964607446826 0.6436931235208128 -0.0149767111778426 71 68 63
0.5920333704342288 -0.2607198118633488 -0.0234553084632028 37 36 32
-0.5876443742461915 0.2218441778257947 0.0004914680079834 68 51 41
-0.1789132557491773 0.7397810868234679 -0.0198743129221065 39 35 32
-0.0092227656522438 0.6902685900307814 -0.0178893669848522 50 47 42
-0.6858900264623627 0.0775867113509570 -0.0184023523614520 74 69 63
-1.2738947323541741 -0.8794957647244123 -0.0176211454642514 86 81 77
-0.0032263770527051 -1.2051531877499631 -0.0199221199556943 93 78 71
-0.0616042727628741 0.5973463050761447 -0.0210541945543017 16 12 9
-0.0880618672171120 -1.3608887257507036 0.0189663770622052 27 22 18
-1.1787924029818033 -0.5470221145518573 -0.0198198835514036 78 71 63
-0.1269605338195130 0.7343768741435289 -0.0203395756310070 53 49 46
-0.1626721479097810 -1.4820282119020238 -0.0127016058285987 42 33 28
-0.7921453659776306 -0.6188574871635861 -0.0166739882768536 49 45 42
0.0284809971218593 0.8868574037603396 -0.0427805444382023 28 24 21
-0.1556519713001329 -1.3733405288355107 0.0124969855495262 49 36 30
-0.5644817812352753 0.1203304500036308 -0.0251301302838679 74 64 54
-0.1234795648266700 -1.3730587445539273 0.0161159710123023 38 27 21
-0.1234795648266700 -1.3730587445539273 0.0161159710123023 38 27 21
-0.0452932322764792 0.5427054714168592 -0.0163301523966115 54 49 45
0.1509223246786367 0.2828149802947249 0.1913842940475766 47 28 14
-0.1788397209672436 0.0950867471474534 -0.0158362161544726 70 60 51
0.5411157682662137 0.6799957974697589 -0.0142870063765657 76 73 68
0.9713256264251732 -0.1178153014299229 -0.0169644379723519 71 66 62
-0.6787516344277877 -0.2708513931539821 -0.0192236423269977 76 70 70
-0.5626797618518699 -0.8251068612424887 -0.0199947405700951 117 103 94
-0.0702689931695906 -0.2404905034627541 -0.0213592056787731 41 37 34
-0.1773635235823957 -1.5252081861928477 -0.0295221614378171 64 60 57
-0.7030458283556567 -0.9032523420598043 -0.0155519055204871 71 67 64
0.5821911885317312 0.1486998015610505 -0.0140819672161769 78 61 51
-1.1366243532002700 -1.1005173480642221 -0.0905837853924088 41 36 32
-0.0889513022844042 -0.3887654045445350 0.4491270719407890 66 65 63
-0.6074486161922700 -0.8949969784756966 -0.0465376991645604 42 39 34
-0.1537389688392944 -1.5287461789705958 -0.0148026320587359 71 62 57
0.5810479072934642 0.0638007586147510 -0.0172505476500244 61 51 42
-0.6072847178674775 -1.4009300779706200 0.0046137451277172 101 82 75
-0.5675915244138224 -0.8732814159182306 -0.0242934010178500 102 89 81
0.5668571311663835 0.2919185008227526 0.1786698052608043 49 31 21
0.3491064868429276 0.1779689424324034 -0.0196343383928293 66 48 38
0.4252239491195095 0.2248683863671586 0.0198867375794755 41 32 25
0.5799467497431601 0.0035666966646175 -0.0187686142425638 58 49 42
-0.1243352112625724 -0.0154048620839490 -0.0013024203988315 201 201 201
-0.1362106416832196 0.8724237580641568 -0.0216633422642714 36 33 28
-0.3565991356712122 -1.2857263594116861 0.1781489762588591 50 30 19
-0.6244536900705998 -0.2440193271642060 -0.0199515712086229 89 84 81
-0.3564883670641428 -1.2855901815597686 0.1777753045884619 46 31 24
-0.3904747433935913 0.2910437307657190 0.1770036153128350 55 35 26
-0.0665930583817894 0.0481959062139394 -0.0186471166057133 85 80 76
-0.6220206241612186 0.2175721501999148 0.0071342229640873 65 46 39
-0.6060446655761016 0.2329384207809648 0.0000080797642050 25 17 15
-0.1691474204415295 -0.1148051995257295 -0.0012948347023255 205 205 205
0.5094860673111922 0.2287537761967772 0.0121292453407729 35 25 23
-0.0759256795073832 0.8927811694144143 -0.0180839884154280 74 70 67
-0.2989341214353749 0.2964479966376029 0.1770103165165013 51 31 22
-0.0348838264410575 0.7351861219518547 -0.0189171852642563 58 54 51
0.5066664468421953 0.2336004178094504 0.0020701250161241 37 26 22
0.0033651578088181 0.7800405287631546 -0.0174216488206118 32 27 24
0.5806734493825255 -0.0734348311637486 -0.0140127616723176 74 63 57
-0.1884011073164803 -1.0076740695116635 -0.0149904595247464 59 52 46
-0.6955901655793816 -0.0789118589724716 -0.0186787950253807 115 108 100
-0.0376582677786344 0.7188812856326458 -0.0176257565910450 57 56 52
-0.1329150123295448 0.6009374852376016 -0.0197485300436449 47 40 34
-0.1334354027067161 0.6007007281845839 -0.0207464796364282 44 39 35
-0.0742610830065845 0.6663021007897701 -0.0169386740107074 69 64 61
0.5154753569345952 0.2398638039033125 0.0225071642540416 22 17 13
-0.0756105381180600 0.8428135215891576 -0.0210567807186809 53 50 45
0.6645782784824428 0.2811331748300929 0.1673425057572232 73 50 44
-0.6781338820652281 -0.1425481627042552 -0.0180782140693416 56 52 49
0.0246566353606252 0.0879583717625213 -0.0481388652465916 26 21 18
-0.0387623137557684 0.8928554387906378 -0.0215976666326808 81 76 72
-0.1036516343395119 -0.1183502601442452 -0.0005991235373681 205 205 205
-0.1602855531302733 0.5938246530502418 -0.0178751929907962 47 44 39
-0.6860275130429002 -0.5050317571541705 -0.0180894135649234 55 51 48
-0.1739857758269767 0.6528134216116084 -0.0195267815091491 43 38 34
0.5011067176504440 0.6191422107401852 -0.0176041110709680 34 29 25
0.0052745505409817 0.8590554941733504 -0.0225278495792788 35 32 27
0.5016358927654312 0.6173045870266908 -0.0150360685935534 34 29 25
-0.1054985848215385 0.7085934967498173 -0.0164959786672467 39 34 30
-0.6154450699583141 -1.1278100134589444 -0.0214876755669379 74 57 49
-0.1612902886892418 -0.1971092885999206 -0.0175973129454247 58 55 50
-0.8124592908528369 -1.0004221277183054 -0.0147371191195279 71 69 70
-1.3572088801670488 -1.0071357046783047 -0.0190374723677235 72 69 64
-0.1567680382523439 0.3001480176043248 0.1733025581797574 45 26 20
-0.0539442935157843 -0.6350454623789408 -0.0157493853752549 80 76 73
-0.5603189753725929 -0.0766885227499197 -0.0189533642468896 106 95 89
-0.7926562452130459 -1.0317218856240731 -0.0146483764468843 60 51 46
-0.6041769176090174 -0.1492805544430131 -0.0181652985532738 85 82 77
0.4888094446319118 0.5254360899183578 -0.0166997167028779 43 36 30
-1.1475170998953708 -0.6975199832508746 -0.1474332632855429 19 15 12
-1.1475170998953708 -0.6975199832508746 -0.1474332632855429 19 15 12
-0.6586623108489745 -0.2502114018251153 -0.0199384020841745 80 77 72
0.4632132206824831 -0.0155055582340154 -0.0152987091104747 63 59 56
-1.2869179977843792 -0.9344423045411495 -0.0162207089058161 88 85 80
-0.6118255555892922 -0.4766439027639244 -0.0180364389602112 71 69 70
-0.6598921421017249 -0.2828768700707889 -0.0188972636067090 75 70 66
0.5854299879865549 0.0980260037185675 0.0121010196373077 63 49 38
0.0109297160984607 0.5238136316985216 -0.0148804573275324 49 40 33
-0.1144692442326824 -0.8408261647127758 -0.0152637624864498 46 43 38
-0.6578601473617630 -0.3254026804370211 -0.0197562949720916 89 84 78
-0.5883873936625343 -0.1671362093607454 -0.0241722183927340 72 68 65
-0.0921976624132072 -0.8444400733233263 -0.0147778446819532 79 74 70
0.1851973442096364 0.2774240575163121 0.1437928678264498 60 38 27
0.2231665887570637 0.2793995004652337 0.1693208904195590 80 58 47
-0.0972604233975590 -0.8047599871244926 -0.0092788303697564 49 46 41
-0.5551551841463405 -0.4314585473709408 -0.0820388504108822 23 19 16
-0.0972604233975590 -0.8047599871244926 -0.0092788303697564 49 46 41
0.5814978293528040 -0.1584268236058936 -0.0126112861885135 81 68 59
0.2524024105221883 0.2808242391123315 0.1691267297809130 85 63 52
-1.2458770155366756 -1.0364684961136386 -0.0203420297142992 81 76 72
-0.0293517397814239 -0.9152043848646193 -0.0169845256951121 19 15 12
0.5134399219952540 -0.0769121713569738 -0.0160129364299398 75 71 68
-1.2170001069452276 -1.0579457641028449 -0.0197728332506497 50 45 41
0.5768061289696577 -0.5362218397244461 -0.0161913422887510 85 72 64
-0.0207007977100173 -0.3047985673812386 -0.0126167172209058 15 14 12
0.5476162224730050 -0.3261599488727676 -0.0125283496997464 35 32 27
-0.0905528893469710 0.8934841052465585 -0.0185404374370922 79 76 71
-0.7180273710991324 0.1223945881668318 -0.0204613040799668 53 46 40
0.5804974310204671 0.2079627572889773 0.0047348148843289 65 47 37
-0.1098027214064772 0.2681212797950104 0.0494769943603438 80 69 63
-0.0055292895598628 0.8536529303418260 -0.0188645616142393 36 33 28
-0.5685000915610999 -1.1902988682612796 -0.0143721558992309 73 55 45
0.0164883084243978 -0.3821681130146584 -0.0174294634256826 67 60 54
0.3592367271364379 -0.0764696141672232 -0.0187194499846948 51 47 44
-0.0390017585225219 -0.5720754414467663 0.1250029359400192 64 64 64
-0.0390017585225219 -0.5720754414467663 0.1250029359400192 64 64 64
-0.0847228296563268 0.6847931616796320 -0.0197442478801125 62 59 54
0.5228066869864141 0.1860599665767625 0.0001549986500253 89 70 63
-0.0842805174224959 0.6845683235382548 -0.0187904878102105 62 59 54
0.4187444524925579 -0.6753656319671619 -0.0141794739894397 88 83 79
0.0030735403281828 -0.5693150012282686 -0.0187437601976261 58 54 51
-0.6012555457594037 -0.4477936490922382 -0.0156929369237322 35 31 30
-0.7220652065423090 -0.6287349835341783 -0.0172686359954891 78 74 71
-0.1756923474767428 -1.0404077058690353 -0.0162852163901418 68 61 55
-0.1833002696564758 0.0946095345572050 0.0025258583052342 66 61 57
-1.1390961822872689 -0.6746665639338580 -0.0857571446342875 55 52 47
0.5066893522648303 -0.2458645376983209 -0.0156579453979272 39 34 30
0.3760860416918805 -0.3905946190399152 -0.0169879208465951 38 35 30
0.3760860416918805 -0.3905946190399152 -0.0169879208465951 38 35 30
0.5594474868604661 -0.2213143822150758 -0.0146929218022393 37 33 30
0.5048524739135635 -0.4277699545657173 -0.0130227853928424 56 52 49
-0.0828310871118101 0.2421945248263573 0.0331389135068805 40 31 26
-0.5713367051787492 -0.5790539837455889 -0.0213470675632870 77 68 61
-0.6400656959356800 -0.7012169469919470 -0.0134156032992616 74 70 67
-0.1686534176329593 -1.0847098695782720 -0.0171561273946958 60 51 46
0.4487371072432304 -0.6759003719947145 -0.0168961950166721 50 45 41
-0.1498589606210492 -1.4253999209964681 0.0010248660758321 64 46 36
0.3661133497842017 -0.7962968649513569 -0.0115872770722132 67 63 60
0.3661332123089887 -0.7964603970369902 -0.0108722659223910 41 36 32
0.4871427743570628 0.2784864566170609 0.1122236404549583 45 34 28
0.3598166199758873 0.2021945738864844 -0.0130396103118892 64 46 34
-0.1720580809120791 -0.0633158518887496 0.0014393941458591 69 69 69
-0.6690492059483125 -0.3530165131568536 -0.0195928805549461 86 82 79
0.4590409036057422 -0.7279010568631998 -0.0129203642765535 37 36 34
-0.0671835996869712 -0.4396054619440424 0.1520552498731824 32 32 32
0.3327712540304834 -0.3650215881925321 -0.0073150857081565 71 71 71
-0.5864997073018032 -1.0224230982601441 -0.0175567405871208 73 65 62
0.4394391029613215 0.3189837941714316 0.1820242552668852 42 25 17
0.4340498957229002 -0.0427778305015948 -0.0176645257714217 79 74 70
0.2047835333195844 0.1966105685850232 -0.0933703227235117 71 71 71
-0.1027810390323768 -0.4283422465128962 -0.0257470477310690 33 33 33
-0.5570717390384825 0.5394028065022509 -0.0158782617250485 79 65 56
-0.0534222666433722 -0.0763400208130065 -0.0002787941976345 73 73 73
0.5885063263399597 0.1530210238986884 -0.0253113839351699 32 23 18
-0.0930336134376137 -1.5816299034117152 -0.0125175153907085 66 61 58
-0.0664301915186500 -1.5122990100765650 -0.0137206729399802 61 52 47
-0.5576187934506289 0.5240824226657336 -0.0170975448004101 76 59 49
-0.0255239053005617 0.1750905298393869 -0.0002922907041411 91 67 57
-0.7212516715812363 -1.2522571480397071 0.1719481704881448 29 22 16
0.1182081966033668 -1.2592422706090460 0.1780061627047369 51 36 29
-0.5705607810391755 0.4904785961824835 -0.0178154666356887 56 43 35
-0.0361313584499581 -0.5544500031920536 0.2239166953214331 16 16 16
-0.5959534513534497 0.6923327879114393 -0.0199915221022435 72 71 69
-0.0681615830365900 -1.5292806524591698 -0.0163808045063871 74 69 65
0.5323289855001463 -0.0200763700241553 -0.0154878510367929 37 34 29
-0.5542211263477194 -0.4356561600164300 -0.0512164767385014 50 46 45
-0.0357327120522800 -0.5651140741764672 0.2247298176534596 18 18 18
-0.0961276500978594 -0.0137983501941134 -0.0006908543405781 67 67 67
-0.5584656606610795 0.7592765136694338 -0.0188615240495260 85 72 63
0.3726974529503069 -0.7789638761149700 -0.0154640052230443 43 39 36
-0.0380203601264020 -0.5501976502098349 0.2033346457866770 55 55 55
-0.5598731689371693 0.4925993925975267 -0.0194185933511427 78 64 55
-0.6121708084002639 -0.6743254857167008 -0.0185551534566734 78 77 73
-0.0375451431751030 -0.5689987756473467 0.2025533306467577 55 55 55
-0.0055665098867746 -1.4088903982786205 -0.0144105049986119 78 61 51
-0.5547241959884379 0.6582036234225955 -0.0963960879872908 21 17 14
0.3666934243705635 0.7462320803694483 -0.0142636058126940 37 34 29
-0.5545058061059985 0.6582327669566728 -0.0960000597748241 20 16 13
0.4916549867000850 -0.1709356711070484 -0.0151406882717315 17 14 9
0.4916925718891790 -0.1709132931106365 -0.0151641014663641 17 14 9
0.3641459210731322 0.7140796333746995 -0.0161267319170041 58 53 49
-0.0378180998909424 -0.5286054250059012 0.1327077155149701 15 15 15
-0.0678274417266526 0.6495593716788339 -0.0172559231851548 66 62 59
0.3834385725047389 0.7395955837989414 -0.0126375592178453 87 82 78
-0.0660418355886728 0.6425329381094408 -0.0153026879531812 66 61 57
0.2871043626391134 -1.2671411673336905 0.1796554095690000 59 39 30
0.3761955942090969 -0.8734294454898188 -0.0142636257797986 54 49 45
-0.0887956369694078 -0.0639841610424620 -0.0003973387521019 202 202 202
-0.5573597434643434 -1.4306297962151395 -0.0251528849530105 38 27 21
-0.0401666403314643 -0.5318189211304691 0.1155656122157343 42 42 42
0.2820257134804906 -1.3077218165006630 0.1782903316912312 49 30 16
-0.6610909521093826 0.0596340981293665 -0.0194508376412062 81 74 68
-0.7354818615362145 -1.0991822572575938 -0.0179344466289830 72 59 51
-0.7977345283030784 0.1118402982853172 -0.0183031164993019 59 46 37
-0.7452353785141861 0.2040101880751374 0.0004707145309422 73 54 47
-0.5588588501316601 0.7141746997622935 -0.0196135119691752 88 74 65
0.5407526573398657 -0.1047161633310893 -0.0147863236485317 40 35 31
0.5407526573398657 -0.1047161633310893 -0.0147863236485317 40 35 31
0.3852628413079764 -0.4995192137645110 -0.0172528104521301 81 76 72
0.1646631379868709 -1.2626914673093563 0.1788650783194571 58 36 23
0.0012678710106939 0.7318038422249655 -0.0177555680000982 46 41 37
0.5411132550201988 -0.1281834825345799 -0.0163140214808448 61 56 52
-0.6711819317083226 -0.9953542760929778 -0.0184983027982866 71 66 62
0.3235826581040812 -1.2588708721431789 0.1780131190495094 55 40 33
-0.0022039349329720 0.6849657957921669 -0.0158136666320246 62 57 53
0.5687892961367355 -0.4752325844921576 -0.0135744074917463 65 60 56
0.3813997148987787 0.7207353021766477 -0.0160845292547429 84 79 75
-0.3105546660031083 -1.3082763620974645 0.1779594964198592 62 44 34
-0.0457381167685875 0.5748020372794596 -0.0166993847547563 43 38 32
-0.0452727731925725 0.5739097852821012 -0.0155507143293543 43 38 32
0.0152604394759419 -1.4701833469016927 -0.0157286893288950 49 35 26
-0.0373497973540478 -0.5585761098475541 0.1256187904983640 18 18 18
-0.0373497973540478 -0.5585761098475541 0.1256187904983640 18 18 18
-0.0346679703820574 -1.6072994667159468 -0.0130082165747128 89 85 82
-0.0593740246813808 -0.3778097784895564 0.0004046085541847 26 26 26
-0.6064466454981201 0.4710774214651097 -0.0175424803632630 68 51 41
-0.7395401611189185 0.1073842044262465 -0.0189705029687223 67 60 54
0.5833310977855085 -0.0587414586775684 -0.0145078856422829 84 74 65
0.0015732993391349 -0.2642354080097828 -0.0158874147465524 108 100 97
-0.5584017814480451 0.5574570937238449 -0.0185028406691501 87 73 62
-0.5551004712732814 0.7445617516330660 -0.1137161459932453 32 28 25
0.3336261559988457 0.3153000363520692 0.1777377656478725 40 23 15
-0.6968625971228837 -1.1785061819165239 0.0031851156893053 44 29 22
-0.5784813275731373 -0.8479929527555111 -0.0160752753578407 51 46 42
-0.5549678017883333 0.5449118647973106 -0.0272245404473049 26 21 18
-0.1839197891590836 -0.7397480290888057 -0.0099222969825822 65 60 54
-0.0045263872306353 -0.3013150670457005 -0.0154124136839601 21 20 18
0.3303391683593362 -1.3152292147047311 0.1793043648929473 67 44 36
-0.1852792253429409 -0.7508228305635247 -0.0174990721245877 69 65 62
0.0163535360622631 -1.4970896982809847 -0.0157156159732858 40 27 21
-0.5581065606638377 0.4778555902480479 -0.0179506436944279 87 73 64
0.4000031678407964 -1.0003679715866998 -0.0139975758889854 25 21 18
0.4073370807984760 -1.0062658375537357 -0.0141422237597858 75 70 66
0.4918446173944617 -0.3276080157693157 -0.0128644581864155 73 69 66
-0.6678822566492156 0.1707548374090612 -0.0168433467533192 18 14 11
-0.0054495038957175 0.1044595430827853 -0.0163646710382495 43 34 29
0.3899985790653144 -1.0609005845898833 -0.0155761025961190 81 76 72
0.3621053740263032 0.6172580651650544 -0.0141130630494915 56 49 43
0.3513366560832767 -1.1614958455667426 -0.0178761273996932 67 53 42
0.5141018253487651 -0.7695692956844244 -0.0136874972651130 107 102 96
0.1870400862741408 -1.3078270877276814 0.1790995514642552 61 39 28
0.1870400862741408 -1.3078270877276814 0.1790995514642552 61 39 28
0.3539250650585450 0.5221756475885014 -0.0203057413007718 62 55 49
-0.6117283363952435 0.2131203394571177 0.0057060554426660 68 48 39
-0.7833749281420038 -0.1857836174366542 -0.0180246364742309 81 77 74
0.3550499499499805 0.5704553811916860 -0.0145974156916447 67 60 54
0.5855333272528742 -0.1331344527856070 -0.0107494224560818 76 59 49
0.2023415936110777 0.2897220575470844 0.1801224311314501 42 25 18
0.0265833582305794 0.5357914366278763 -0.0176907156642983 79 61 51
0.3858337392139086 -0.6400473004796761 -0.0132620785144651 79 75 72
0.0802544583337220 0.3354416994199897 0.1769778036100867 32 17 10
0.0802460146636501 0.3354741411110232 0.1770336775704327 32 17 10
-0.5594547000525315 -0.0559806034565976 -0.0197811536257317 97 83 74
-0.0614496721203932 -0.4752768839726617 0.4370143307639130 92 90 91
0.4230173640114907 0.6680919511838814 -0.0157876098788071 85 82 75
0.4106955676915721 0.3055790349713384 0.1781761655266113 45 27 17
0.0691372001812021 0.2881009219333496 0.1767829675173806 39 19 8
0.4106955676915721 0.3055790349713384 0.1781761655266113 45 27 17
0.4307522469932392 0.6733624502525499 -0.0155771084180574 37 32 28
0.4206513177944539 0.6404401894642050 -0.0153907343695967 72 69 64
0.0122255205832175 -0.4394287707116640 -0.0141816476012680 42 34 31
0.0269676425998153 -0.2570773546439400 -0.0866391947702903 19 15 12
0.0265138257166403 -0.3893001288852493 -0.0305439582499691 23 19 16
-0.5704935884316449 0.2894039607140510 0.1779336482713222 59 37 26
0.4188176341726969 0.5941301598337115 -0.0154864620105577 34 31 26
-0.6005603933618197 0.6514649137217354 -0.0185438536264301 69 65 62
0.4196505018212962 0.3184402631043279 0.1778033881331305 43 26 18
-0.7237200740436177 0.2465627239548507 0.0166328149251197 26 21 18
-0.0576336892701759 -0.6482697989180605 -0.0160233110406196 74 69 66
0.4335302350681824 0.5798750122556198 -0.0158812596763515 79 74 70
0.4907186884840698 -0.4128677482847284 -0.0155455828641883 37 34 29
0.5864644665640192 -0.1115672221756247 -0.0763017864801190 20 16 15
0.5553161415181367 -0.2657113686848407 -0.0125490725940591 41 36 32
-0.0803648511009223 0.1558288045496208 -0.0176244676316902 58 41 31
0.5897341703500846 -0.1366856558826587 -0.0620661672385526 23 19 18
-0.1749126533103098 -0.1363649780348874 -0.0007570056274393 205 205 205
0.0224824054004960 -1.6310367005174327 -0.0144953282475570 100 91 84
0.1340566271491307 0.3448993622072237 0.1800579420429805 46 29 21
0.1202492189146635 0.3058436727049448 0.1770207087806674 50 32 20
0.0259644758526931 -1.6293533654627592 -0.0206749174619427 25 17 14
-0.5152467252506086 0.2896985240458000 0.1755453526974898 41 21 12
-0.1666842955916169 -0.1457615056577709 -0.0007291055978491 196 196 196
-0.5562943258130914 -0.0394269107575420 -0.1515596240690995 20 16 15
-0.0942738644567147 0.0606653418241679 -0.0172281070010167 78 75 70
0.4505163694836943 0.3212658274968775 0.1781054684375970 44 27 20
-0.6627491399201023 -1.4100400411127718 0.0016108171909985 69 54 47
-0.7351533060354242 -0.2339802941677599 -0.0202790272282722 41 38 33
-0.0953006432167522 0.0464952662887166 -0.0153535690908180 82 78 75
-0.0959733709940112 0.0465151016153461 -0.0166960524434251 82 78 75
0.1351225860930739 0.3149005196446834 0.1772383220025092 31 16 9
0.1350681488324393 0.3150009958018253 0.1772457550809524 32 17 10
0.4203115629731620 -0.6613684306751229 -0.0151374588404113 87 83 80
-0.7742620386055928 -0.8862465798116309 -0.0179367225502145 71 70 68
-0.1715093234829330 0.6269997910177966 -0.0153982965205318 56 51 47
-0.1066637609378252 -0.0189991406020411 -0.0005871128790702 68 68 68
-0.6355943040342994 0.2461519468423226 0.0157803408285748 28 23 19
-0.1356430395579282 -0.1077718378912920 -0.0007325213246126 72 72 72
-0.0590709958394344 -0.8143830148033937 -0.0147977242164560 83 78 74
0.2592635861006570 -1.2696937921682745 0.1810082712866662 62 39 25
-0.7759674276658961 -0.9196593015489605 -0.0197411890124387 71 67 64
-0.4926369976188538 -1.3008029858597936 0.1775242039243658 57 39 29
-0.5563882472426760 -1.0207956170090655 -0.1019295358733538 24 20 17
0.0274744513693681 -0.0289496916951113 -0.0376036583363558 21 17 14
-0.0622669120332658 0.0894672719378826 -0.0167411927124092 77 72 68
-0.3376621672150311 0.2991565211110521 0.1758339809236429 60 43 35
-0.1801783479000095 -0.2129516140326167 -0.0167242679536786 53 50 45
-0.6158122934558846 0.2455182697949832 0.0245670991714223 87 80 74
-0.3398624018838763 -1.2912266436928248 0.1785776673096860 29 12 4
-0.0347029650739240 -0.4285152376833717 0.1095352753517708 34 34 34
0.2602060359234537 -1.2897247602503108 0.1800670626808808 51 29 18
-0.6263751832418255 -0.6019542023347438 -0.0174904817919563 82 79 72
-0.5561272516770703 0.4996434861193660 -0.0324180303133661 30 23 17
-0.7590826055999301 -0.3925125114056722 -0.0191747750100755 41 38 33
0.5867838611124885 -0.2720648455629154 -0.0266416217205539 27 22 18
-0.7630723852039565 -0.4107649137527597 -0.0187461356339300 77 73 70
-0.5784985146528265 -0.4817064157582873 -0.0169844705162140 49 42 36
-0.5787166879598744 -0.4816392484358544 -0.0172698799306775 49 42 36
-0.1593147719278907 -1.1995453830940932 0.0133888306870761 33 22 16
0.3782658368601088 -0.8146161942273391 -0.0143913798647049 43 38 34
-0.0547596651300351 -0.7612276956838502 -0.0153197367585196 82 78 75
0.4753608035461058 0.5717871452196112 -0.0152878144999626 36 33 28
-0.5566218870550094 -1.0644037072943642 -0.0996956537828899 28 24 21
0.4838559448585923 0.3291734442431736 0.1782394218882720 42 28 19
-0.1438760448885281 -0.1820862465824872 -0.0005101907550359 74 72 73
0.3886989880524260 0.1750484300861188 -0.0045755310179693 88 66 53
-0.4469958080827833 0.2883587032175977 0.1771979858322535 61 39 28
-0.1381766407781433 -0.9919179690176363 -0.0163900234241383 77 72 68
-0.1438760448885281 -0.1820862465824872 -0.0005101907550359 74 72 73
-0.1809795444397435 -0.2563813811644174 -0.0165370256938351 42 37 33
-0.1809342675102315 -0.2563962244039240 -0.0165072071275312 42 37 33
0.0286356210486325 -0.5130856266630696 -0.0706434130231758 20 16 13
-0.6662299103773108 -1.4807483372469044 -0.0183875282856920 76 66 57
0.4740593306494880 0.5168407173073764 -0.0067787347289284 36 29 23
-0.6662299103773108 -1.4807483372469044 -0.0183875282856920 76 66 57
-0.5580120767513608 -1.0738093731686482 -0.1027370053299562 28 24 21
0.4851141134195805 -0.5916762673084135 -0.0147719866852161 78 74 71
-0.8073469946914641 -1.1057207353685659 -0.0135632245453421 72 72 74
-0.1765662340600924 -0.2495972635888996 -0.0163260433990622 77 72 69
0.0283296707949911 -0.6516175286228005 -0.0812310858815608 17 16 12
0.5717893440790428 -0.3785866880962523 -0.0148427553158051 77 72 68
0.2793407992664211 -1.2987282589999476 0.1781535712274407 47 29 19
-0.1571491113931509 -0.2161884687802092 -0.0103629744311090 51 50 48
-0.0376604494473744 -0.7959635856088373 -0.0157299323444201 41 36 32
-0.0678492035647171 -1.2643337547000464 0.1774324990509485 59 37 23
-0.8046728809492185 -1.2116051953781974 -0.0048301550978553 74 73 69
0.5110059053497059 -0.5573846706379060 -0.0152516774551942 56 51 47
-0.1180162752311325 -1.2657363514676994 0.1785162735115828 26 12 3
-0.5608134142773055 0.2388062711045364 0.0021809245794733 48 35 26
0.5104382199361229 0.5438291386963191 -0.0114943089921095 62 57 53
0.5151797381950950 0.5590263484863516 -0.0148979645980663 76 71 67
0.5151797381950950 0.5590263484863516 -0.0148979645980663 76 71 67
-0.6533009869391307 -1.4965728194849270 -0.0152325030956241 72 67 63
0.5349122075556320 0.4605142971405984 0.0021560799239015 90 66 54
-0.1325262223167079 -1.3261888777802642 0.1770865353734375 74 50 38
0.4548485737700597 0.2245444504309434 0.0130241258054150 59 39 30
-0.1505559557285271 -0.2317623040112081 -0.0155973978001544 76 73 68
-0.1509696874749758 -0.2402184688112675 -0.0158723126104501 70 67 62
-0.7141852332477995 -0.3718784248241867 -0.0162049011771592 73 70 65
0.5161350106968977 0.5238493607080127 -0.0139607757602239 42 35 29
0.3979489848887449 0.7448169803117825 -0.0283940375420198 80 75 71
-0.5882580587421924 0.1411888040105573 -0.0155722855706192 62 51 45
-0.7238135709112592 -0.2027418716651073 -0.0184871622145388 86 81 77
-0.0855809473987404 -0.1071487561791364 -0.0005720926495000 198 198 198
-0.2848644817921895 -1.2987639824794588 0.1799107419125106 46 28 18
-0.6918356521023086 -0.1417656723208029 -0.0132100339514250 84 79 73
-0.0621068326645340 -0.9337405480291222 -0.0158163545634677 64 63 59
-0.6957059627322668 -0.3555993434347287 -0.0177594935001818 91 86 82
-0.0391355908297612 -0.3712252307018335 0.2317770747960559 17 17 17
-0.0155643678802141 0.7052612437170456 -0.0174327385545934 62 59 54
0.4166251059105832 0.2184188589413435 0.0205798504367794 38 25 17
-0.0847299987860202 -0.1380472009749492 -0.0005841847913224 203 203 203
-0.0679568716832614 -1.1783544870017841 0.0141748916178863 42 27 22
0.5679641096159205 -0.4599637160796843 -0.0141741564947547 79 76 71
0.3057410100945882 -1.3043678918291650 0.1788376401694304 32 15 8
0.5842435780964796 0.4743063672807554 -0.0134550838004383 84 66 56
-0.5581573481591245 -0.6848449755633236 -0.0302781853660893 26 23 18
0.0000818995955163 -0.9990394352982912 -0.0154780561927193 47 46 41
-0.1327201020198328 -0.6689280185206553 -0.0160161774125884 78 73 69
0.5258182035432861 0.5107085213220525 -0.0132309486837327 60 51 44
-0.1327201020198328 -0.6689280185206553 -0.0160161774125884 78 73 69
-0.0385618808087549 -0.5938415451577973 0.3506778856938229 41 41 41
-0.1019529689704697 -1.1079079317714489 -0.0153406031557081 60 47 38
0.3702809191716516 0.0817020617419104 -0.0171674620680354 52 43 36
-0.0553778035368211 -0.1068614371477099 -0.0003972283747240 199 199 199
-0.2573766821216397 0.3011103463003247 0.1800411025029071 32 15 8
0.5776025783996533 0.5766596589590089 -0.0101785699693786 64 55 48
0.0275159639442399 0.6885228705189972 -0.0165740898842272 74 61 53
0.5024874275320271 -0.6589330799648024 -0.0142766054699889 80 75 71
-0.0173412144272359 -1.3191275742904809 0.1773754153271831 62 40 27
-0.1848633568111893 0.1456359969837502 -0.0163156227776006 63 49 40
0.3607290849281957 0.0056860201880044 -0.0162669397027007 49 45 42
-0.0187620792135839 -0.0312596015773175 0.0000370850617444 88 88 88
-0.5776232462206036 -0.1622601182309640 -0.0181566500096977 45 41 38
-0.0187620792135839 -0.0312596015773175 0.0000370850617444 88 88 88
-0.3357259553746829 0.2893070262157433 0.1754052366192749 49 29 22
-0.0033817934280233 0.0299081096740651 -0.0146772994568122 57 52 49
0.0163555137959568 0.0790207880909053 -0.0166142882441340 58 48 39
-0.0388937026352792 -0.5940188147445437 0.3294467723526897 42 42 42
0.0269555408840749 -0.8025346185921370 -0.0587884054889917 34 30 27
-0.2205099295570155 -1.2627807556157851 0.1773754151232456 59 37 26
