ply
format ascii 1.0
element vertex 705
property double x
property double y
property double z
property uchar red
property uchar green
property uchar blue
end_header
5.8957327443480931 0.1437374812675104 -7.0316053092898505 92 85 79
-5.1220436187833620 2.1611122234620588 2.3500241348103361 72 67 63
8.3996812302832851 -2.0121994671309675 -7.3252411725705047 19 13 13
1.4224320363052980 -0.5727954445805333 -1.1747138066553307 71 67 64
-5.1220436187833620 2.1611122234620588 2.3500241348103361 72 67 63
2.4050724343299614 0.3672317770927533 -3.5076411177492632 111 106 102
5.0568235448575427 -0.8072665277945257 -4.8790426755202496 80 76 73
6.4965430014324728 -4.5838075032695036 -1.8559893759224666 43 32 26
1.8611363848785554 -0.5796651934726718 -1.2957641908849613 35 28 22
1.8116289769675551 -1.6075685265001485 -1.8165044019226195 121 121 121
-2.8197220137836525 -0.4199046796642566 0.9104216949320789 50 28 17
4.7509298891689360 1.5509870220472617 -7.6409359142420046 88 83 79
9.3327621623942498 -4.7858682096745317 -4.1830947060255461 42 38 35
4.7630824224376571 -7.7390356929934887 2.3128420912751073 48 31 23
5.0841671406112816 -1.7743232995626441 -3.5906859285709509 115 108 102
7.1507897250895702 0.0727470266952245 -8.3160029696892828 77 67 58
5.4759588762927249 -1.7938059163050635 -3.9182967974884919 52 51 49
1.1829068726622003 1.7789704781950464 -4.0118601429134984 78 71 63
5.5348623023503025 -1.7964139090810578 -4.0135595756828994 77 73 70
9.2866480968809402 -4.7604511184420000 -4.2451188613058477 81 78 73
9.2866480968809402 -4.7604511184420000 -4.2451188613058477 81 78 73
8.4858801152235639 -8.3131238388190258 1.5033120510919604 120 111 106
5.8641294263847685 0.1596134493362421 -7.0205712457747707 67 63 54
-4.4737763789977674 2.1595486871290941 1.9544655199871912 59 52 46
5.8596432381260311 0.1584519270546892 -7.0232165907569213 73 68 62
9.8537349419458202 -4.7984073330675194 -4.8075214969179205 86 82 79
6.9312884928679361 0.0917384502668026 -8.0889160026387028 89 86 81
1.7155136538936553 1.7488593489246529 -4.5473305264848491 69 66 61
5.9314314447400669 0.1602768704503010 -7.0974447748784950 89 84 78
1.7694399437031743 1.7386453734323624 -4.7240020548914998 76 73 68
1.6714967003732701 -6.1578587775676814 6.2456539652489864 66 65 61
7.0951194772217940 -7.6501706613340748 2.1801708780568410 50 46 43
8.4938190245271237 -6.6184876730630791 -0.6668743372760657 77 73 70
8.4367634975854635 -1.9582055311570499 -7.0097699837627330 59 42 34
-2.5107255152000456 2.0105397152853230 -0.3446913414019723 57 43 34
2.9662424766236875 -1.6005285059863588 -1.4261161451931910 97 86 80
1.2147415791682965 1.7816974048874032 -4.0559978703186061 76 71 65
4.9388658220575419 -0.7296878223621442 -4.7311735787029434 65 61 58
-0.2739135409563719 0.5728059505055406 -0.7409887046436245 45 41 38
-0.2739135409563719 0.5728059505055406 -0.7409887046436245 45 41 38
3.4391188605028344 -7.3379340176024233 5.7326780791604453 119 111 108
4.7736150094688492 -7.6535663446655153 2.0583461404807855 44 30 21
2.8031228012591258 -1.5704864933915510 -1.3718239245871569 71 67 64
8.4393160026093845 -1.9583235573875164 -7.5677787514057728 44 37 31
1.8594237339728339 -1.5571512744866194 -1.7087303712262516 118 118 118
-4.6157329191390133 2.1448163336389920 1.8116128424825146 70 65 61
7.0051139668671540 0.1059333619358712 -8.2052499833414281 88 83 80
0.8168875177336531 1.8082763370301840 -3.7201188875135585 47 44 39
5.0603441710639325 -7.6427927611749356 1.7784342476032755 61 47 38
1.0181202176666588 1.8257857785594775 -3.7069248939329271 36 35 33
9.5074277355524508 -7.7414814290402152 -0.3591008073035392 112 108 107
4.7830350580717829 -7.6176309882837474 2.0459276220974107 49 36 28
9.7899162717927624 -6.7003311684817017 -1.4866508088313808 38 33 29
7.0992989584724997 0.1076157045883285 -8.2912973096325242 105 95 86
-4.4364222615251032 2.1911587882499659 2.0752389311464947 94 84 75
9.6801625042110562 -6.6790385535653085 -1.5806234381844773 37 32 29
2.3741755289548494 0.4018212166440071 -3.5732638035524671 82 77 73
4.9901117304827620 -1.6907571209459784 -3.5703069920387915 108 99 92
5.8766253740354006 0.1851480845599202 -7.0796990356414140 74 69 63
5.8766253740354006 0.1851480845599202 -7.0796990356414140 74 69 63
2.9046922693738257 -1.5508992277809286 -1.4129711238718856 87 78 73
3.8774568332593367 -0.6071567055273941 -3.7797397652184173 49 45 42
6.0441950890130318 -1.7414543765130575 -4.7807361194573010 50 46 45
6.0710834841631449 -6.1441271639332733 -1.4524110721201204 66 39 28
6.9464342501188723 -4.4973029756456171 -4.5786999289798702 56 40 27
3.9982632267765159 1.6431298925580240 -6.9047471143680879 47 42 36
8.3670543082550815 -6.4405624605849718 -0.8942612363145137 53 49 46
6.8307805397164758 0.1330597386426178 -8.0588413783215156 86 81 77
8.3597041272526411 -1.8803622897911418 -7.0228925323475604 97 82 75
-0.9758778173501906 0.6329811499037078 -0.1529173533589295 52 43 38
-1.0728850215590713 -5.7916170754884710 8.7025103881594656 84 79 75
-0.4284122534017113 0.6004129678237022 -0.7007147952641742 81 76 70
0.3075988695839477 -4.1485777002535960 5.0807780585308402 84 75 68
6.9971005366359469 -8.0086698158902330 2.6680677719863994 105 101 100
9.3655274028723312 -4.7453374760429750 -4.2772324565681288 88 85 80
6.1669355074547401 -1.7324275417185131 -4.8840347213275335 68 64 61
5.3213206067883307 -1.6751317097284935 -3.9787529810306159 37 33 30
2.1667708015396108 -5.9826239492349389 5.3650150575405036 83 79 78
9.4038779227048082 -4.7366136994978243 -4.3408346343004567 77 72 68
-4.1365170950748862 0.8499370029958089 3.0951600474645722 88 79 74
1.5877601014829992 -0.4358571242617045 -1.4374031846887354 30 25 22
5.2843296556093255 -1.6557413217654919 -3.9495797862139232 58 54 51
2.3205135823372021 0.4325023946196872 -3.5087876269499350 108 101 95
1.1760827476737710 1.8314772338143508 -4.1040762914502302 50 46 43
6.0231186443628753 0.2048638267165055 -7.2397816468332943 90 85 79
-0.9513341575752037 0.6455745523770906 -0.2045581996814767 56 43 35
-2.5805099954087263 2.0703282970622170 -0.3382991560292062 81 68 60
0.4005581446551488 0.5796853353205637 -1.3072842470655959 48 43 39
-1.2943662936257720 1.7071677139998838 -3.7359480988636098 52 30 19
5.9667491978192526 0.2126523931571298 -7.1975261316903021 75 70 64
5.9667491978192526 0.2126523931571298 -7.1975261316903021 75 70 64
4.9690428452557116 -6.9850617057739317 0.9419325284252629 50 37 29
3.8820491778022022 -0.5583538822936084 -3.7357210471829867 89 85 82
5.0476220234386995 -7.4580199914550356 1.4968399785757616 50 28 17
4.0746687527261303 1.6703836123128117 -7.0386436283759721 82 75 69
5.0476220234386995 -7.4580199914550356 1.4968399785757616 50 28 17
0.7774589885578455 1.8691125960222239 -3.8018392323316315 56 52 49
0.4572791433090492 0.5908472442936704 -1.2566330161792942 26 23 18
-0.0832229217632278 0.5959051115891454 -1.1215719857906055 69 65 62
-1.3420245330198750 1.7110419978367457 -3.8668022464396508 61 41 32
5.5702786238567699 -1.6435212737319727 -4.2653053187346508 38 34 31
-0.0832229217632278 0.5959051115891454 -1.1215719857906055 69 65 62
0.5862210684664364 1.8973724505935625 -3.5262712301754635 76 71 67
5.0824425071442985 1.6178337395259597 -8.1139402154638756 93 89 86
-2.5378715493660979 2.1031004058443559 -0.2788132266318365 52 37 30
4.0757878982735951 1.6858534721343632 -7.0578605498621689 69 62 56
4.6270993592805372 1.6584447718277564 -7.6612799108137661 81 76 72
9.7971662634193617 -4.6860475437631353 -4.8509904133375379 82 78 75
5.4389161521401634 -1.6177142321691409 -4.1896883193933201 55 47 44
8.4650297282104940 -1.8171255319000739 -7.6273214674192706 46 37 32
9.4120453175415157 -7.4774723006456076 -0.7024699388745113 91 86 82
-2.7572249273056935 2.1279507545304144 -0.2130259360081717 82 73 66
-2.7068293688230378 2.1400866191731653 -0.1289902323355744 65 54 48
6.0793006687152911 -4.4240779896328926 -1.0143205524180918 106 101 95
-4.0027461344698683 -0.9873840604873134 5.2057382578965310 33 29 28
-0.6319228498788644 -3.9580366085367125 5.7206389984122428 55 51 48
3.8231376474913961 -0.5072265791960680 -3.7418116819073202 96 92 93
5.1949707146765531 -1.5839927740222521 -3.9202906456423143 54 49 46
6.2163071682776243 0.2141102708847649 -7.4750686417670167 78 74 71
2.5255545147157541 -4.1603658228127918 2.4381488642195661 92 89 84
-0.4825476400737741 0.6514771601318060 -0.6115917477278392 74 65 58
5.1831473957733687 -1.5762662240031575 -3.9663209298356747 38 33 30
0.1160694591844778 0.6068435845469111 -1.3333481093039050 41 36 32
5.1390216404477016 -6.8736723076480155 0.6038292575997471 36 22 13
5.5245588341323737 -1.5899331337784708 -4.2539672987379991 40 36 33
8.2610095743370557 -1.7658969750393259 -7.2777732651543028 62 45 37
-2.5764733565787070 2.1218376808619119 -0.4681405979016483 34 25 18
5.4761188759450876 -4.3512115643825995 -0.5430058936633423 98 93 89
5.2668642870767766 -6.8633212588262342 0.4937595502350570 36 23 15
-2.2781576882250461 0.5576654964093296 -1.1674758499996940 44 24 13
2.1958955797570097 -5.8205188534312926 5.0680695061893140 78 77 75
0.4329957114616519 0.6216611186660896 -1.3202115787592414 36 32 29
-2.4630288274140670 2.1282478559243305 -0.5516636215169127 58 44 35
7.6160011071538918 -0.7423828207455753 -7.7387431104354096 37 32 28
4.9918536010325143 -7.3208825519772791 1.5213929201389094 57 40 32
-1.2727977011749700 1.7700878614691344 -3.7388379088099799 57 40 32
7.6160011071538918 -0.7423828207455753 -7.7387431104354096 37 32 28
6.4564501798016876 0.2206953076912258 -7.7440406517917690 60 56 55
4.3450764804466937 -7.5756980500019502 5.2638198861175853 42 33 28
4.5686835210349210 -0.5475876109535724 -4.6268949351082362 76 72 69
-1.9115859480268822 -5.5119293064870956 9.3000577841537613 84 81 76
7.2986247762357532 -7.7377781921882658 2.1075096522645556 37 33 30
8.5089490736696654 -1.7466333401410681 -7.7747758977342283 49 36 28
-0.6814533799545264 -1.1303913613361956 2.0594026912998840 68 63 59
5.9501357509705954 0.2677458892771720 -7.2914236748126680 84 81 76
5.1790934823548866 -1.5029712746006021 -4.0210501081843990 95 90 86
0.4587779163314142 0.6535372440444435 -1.2751693347006208 20 16 15
4.8847049969457546 -1.4797635768964164 -3.7714705908201935 104 99 95
5.1772457273823971 -1.4925921376246987 -3.9680027926080905 38 34 31
6.2908583145115662 0.2534097164696290 -7.6480343807972755 69 64 60
0.7748487982108772 1.9479899160557748 -3.9002834121728704 25 24 22
-3.3863014901671442 0.8830035773840293 2.3763622574772696 58 45 37
0.3035789518240641 0.6519952950003590 -1.4190065452100509 34 30 27
4.9627903673432670 -7.2326865295960108 1.4635077839795365 43 25 13
8.5370222252056909 -1.7176241650161150 -7.8942225909298509 37 24 16
5.2717380048006692 -1.4817876607224165 -4.1969263499459188 88 84 81
8.8234040194618295 -7.1895467773643142 -0.4176749559226061 85 81 78
-0.2706983386950118 0.6733622287482449 -1.0198956178802085 67 63 60
4.5543783917100722 1.7317635801703153 -7.6516615446751342 78 73 69
5.1442705799675794 -7.1907061903865364 1.0424451714744143 61 41 30
5.1442705799675794 -7.1907061903865364 1.0424451714744143 61 41 30
7.0546098500017953 -7.6134689696129447 2.0788060399841375 97 93 92
3.6197191785842029 0.4397435413081368 -4.8787879426724325 72 65 59
4.5006319171409608 -7.3732339978584083 4.1699493898198456 38 29 24
-4.7540234027743216 2.3170228876440322 1.7567187720448365 84 75 70
3.5990078288959499 0.4552210931175416 -4.8339043707702931 45 41 38
4.5006319171409608 -7.3732339978584083 4.1699493898198456 38 29 24
4.4026549651928208 -0.4399169967304452 -4.6171226507653849 78 74 71
0.6635666091507517 1.9713039695464325 -3.8114357091635189 22 18 17
8.0612776414101237 -1.6306598094183802 -7.0493542423427815 102 92 83
6.3188308251334631 0.2827822171986349 -7.6892758619349557 85 82 77
1.8228882118528713 1.9217965541820716 -4.8107609609390591 51 38 29
6.3696337947118131 0.2819439528769058 -7.7691802104918395 66 62 59
2.4113767613159736 -1.2586533242322364 -1.3560158836958123 77 73 70
4.9076357643394886 -5.8541663913346333 2.0778711568088295 78 69 64
6.9272519921937246 -4.3491695686191241 -4.6388543851438566 31 22 17
5.8879277332295628 -1.4837308146650374 -4.8576674954799843 73 69 66
5.0320645582677468 -1.4227086193932141 -3.9170589213071527 32 28 27
-0.6200719559845879 0.7321875478322758 -0.6841986323825560 68 55 47
5.7907953108313777 -1.4731670964265065 -4.7830357162272508 38 34 31
2.3993806441305905 -4.1116244952311858 2.5468144462616826 43 40 35
1.9760221789925037 -5.5823181273744424 5.0178791569800785 96 91 87
-1.2660552153572264 1.8096719417775031 -4.0037822303230381 49 29 18
-1.2274421548623888 -5.3451123212452094 8.2974806525236886 66 62 59
4.2396510784270633 -7.3415346839345643 4.8659189861138525 106 88 76
5.0540103468246356 -1.4071453419165594 -4.0817652031177261 54 49 45
8.1342620806345547 -1.6046745705709438 -7.1578552085089919 86 79 71
4.9369057544642221 -7.1071205666750759 1.1488080247178183 60 43 35
1.3219071442914223 -0.2176030191891203 -1.3834204930167326 57 49 46
-5.0943632397393950 2.3523032673720223 2.0444784536742038 41 37 34
5.3922459960708879 -1.4233141449227189 -4.3990106010564558 72 68 65
0.2610858419460676 0.7184101597084410 -1.3148389509708849 29 25 22
9.7718585880415016 -4.5779828215562395 -4.9376134589325611 96 91 87
5.2753396549275164 -1.4039758637527346 -4.2642208392271197 29 25 22
-2.1543028605982530 -5.2716802300754306 9.2861269397734958 64 60 57
0.4073986043285324 2.0252833309625324 -3.5650933782794505 48 40 38
9.5935170571642789 -4.5299562879475417 -4.8110735860435971 92 88 85
-1.3761859291071890 -0.9521378586360778 2.4315981781573974 77 72 68
3.3263546773316732 0.5205721095914212 -4.7402932386416854 81 76 72
9.7540351286693241 -7.6273373420169657 -0.7932715379450840 99 94 90
0.4741411946536445 2.0228773568476948 -3.6403564716792665 85 77 74
9.4282694773921616 -7.5873738469264644 -0.5235526863723544 86 81 77
6.0914246508749645 0.3491593490763369 -7.5296610700953455 70 66 63
9.4603570145390314 -7.5975240796325458 -0.4896630063937685 86 81 77
2.1059362938718547 0.6015258787125316 -3.5015512364338659 95 90 86
-1.3378051954526378 -0.9491623329812163 2.3569557810948258 75 70 67
9.6989167941768741 -7.1231057832787332 -1.4106388397251006 83 79 78
-0.4181448961654012 -3.8382478799724384 5.3165345889689197 52 48 45
5.1188252523151707 -1.3632887325906888 -4.1938139927534506 89 84 81
-0.4181448961654012 -3.8382478799724384 5.3165345889689197 52 48 45
8.1190258702580049 -1.5533999876632587 -7.2072510343400227 74 58 58
5.3419750180364503 -7.0275163990672489 0.6761559426076922 39 30 25
-0.6112739003004867 0.7738856434464597 -0.7704284712048808 63 52 46
0.3848051643572442 2.0438785251612916 -3.5599902571337121 41 33 31
-2.4645764167283639 2.2360420507893624 -0.5302119733569065 60 47 39
-2.3233893114511184 -5.1237597347308155 9.2260423929472637 52 48 45
-4.0792403377291651 -0.7403453692020184 5.3983227047230278 22 14 11
5.7226716434120215 -1.3822564226654790 -4.8806692677047607 70 66 63
3.6197630365953315 -7.1604995838929666 5.3155303460746293 53 43 41
8.6439379094691411 -1.5819432222098619 -8.1166998016096557 50 39 35
5.0084863255946139 -1.3216783043847464 -4.0582595664588998 50 45 41
-1.6289873397774151 -0.8814821785177195 2.8687000658049908 68 55 47
-2.2957001143787079 -5.0959985523903111 9.1650347452540544 78 73 70
-1.8200720397036432 -0.8699835530020079 2.8255826407999223 88 75 67
9.2155765608028020 -7.5210645206661191 -0.4340148806657914 92 87 84
2.3102941980817775 -1.1376718483441208 -1.2932518503596420 60 59 55
4.5690776442631531 -1.2753177665550619 -3.5213402196437591 75 62 53
5.1257388130757606 -5.5815770702963636 1.6696537074247526 92 79 71
5.2501985855180697 -6.9761455119764131 0.7166027262697177 32 21 15
10.3416053894125461 -5.9153338304591978 -3.7922023972808110 74 71 66
6.2632797026167868 -4.2750361372810604 -1.4816977285578532 113 99 90
6.9835024744414937 -4.2430321823638941 -4.8572965019983920 29 18 14
5.8940803691062404 0.3904910599286617 -7.4001652577341028 72 68 65
6.4953736569245901 0.3568010594787597 -7.9831276797996553 98 93 89
4.3756687461385582 -5.5102187990865561 2.3079565970361093 28 27 25
6.3900658450018053 0.3628804716048566 -7.8767847163509082 88 83 79
4.3756687461385582 -5.5102187990865561 2.3079565970361093 28 27 25
7.7908231813224447 -1.4742546795296931 -6.9415074392970038 100 91 82
4.3485384032106875 -5.4882499386925812 2.1870383327438399 89 85 82
5.7780631834826108 -4.2205167643570949 -0.9570431893558174 69 61 58
-3.1158492550379604 -0.8688523216582179 1.7759097265332311 63 48 41
9.7360616977165613 -7.5160711496794770 -1.0141041754509597 52 49 44
9.7208208182079598 -4.4684916828182226 -5.0831475393069407 127 120 114
-1.9755169165090452 -0.8348143464094564 2.9548401536187701 81 67 58
-1.9755169165090452 -0.8348143464094564 2.9548401536187701 81 67 58
4.8724826430108985 -1.2637922627999707 -3.8697059140446513 38 34 31
2.6892756826195217 0.6025854655141069 -4.1460284807877930 48 44 41
4.9978446958489249 -6.9030010032415001 0.8783867034216990 26 18 15
4.9912581251732906 1.7944133806984712 -8.2479960921255984 120 111 104
3.4518914425044449 0.5662910872846123 -4.8860626894979937 74 67 57
-3.6480626852395881 1.0173458686238765 2.2788077415342136 82 75 69
2.1410067119929019 -1.0960879863406063 -1.2082242647804406 41 40 38
5.6496925585587743 -1.3231031380931566 -4.7361523030284234 64 63 61
0.3006207914224090 2.1035882121882534 -3.4772315679596448 92 83 74
9.5819392368094949 -7.4870717650628267 -0.7801372710819026 81 75 75
-2.9770144627131763 2.3010897007127404 -0.2105697212808558 62 58 55
-2.9770144627131763 2.3010897007127404 -0.2105697212808558 62 58 55
-0.9199673082407188 -0.8931825078890588 1.8466715470193520 86 82 79
6.7701565984921697 0.3625980776497995 -8.2905345428079844 113 104 97
-2.5259893648674825 2.2764851954661061 -0.6502459222354058 40 31 26
6.1374967513036616 -4.1941780118992709 -1.5352711646699899 132 119 111
8.8977087752674144 -6.8755883071196404 -0.8320561071404353 72 68 67
3.6995494044055164 -7.0584374654526885 5.0668242860926824 77 70 64
-3.9338903252546733 -0.6808758062357017 5.0135857765945282 28 21 15
-0.4996658908124880 0.8306907133410383 -0.9492639215484346 52 43 38
7.7316861885540140 -0.5237482644192915 -8.1645870568647556 74 70 67
9.8446393141795170 -7.4694684926841930 -1.1360039158539559 107 102 98
4.6948028713069316 -1.2406058117556062 -3.9090877780411191 39 35 34
3.0932287852288680 0.6032472196348189 -4.5994940869072778 56 52 49
7.7335665878954902 -1.4314144254200396 -6.9428825820820732 108 97 91
-1.2788989616624700 -3.6899418727545394 6.2499226567330073 93 86 80
1.0588587695049871 -0.0867674299373201 -1.4327797136672831 66 61 55
5.2935428305737258 -1.2750697716292720 -4.4885829072723613 74 70 67
-0.2682094774992302 0.8288187601752881 -1.0252428223214847 47 40 34
-0.3439112974245367 0.8220893635675613 -1.1355165322711869 54 46 43
-0.6776574740627342 -0.8811744412028698 1.6665325893240850 25 20 16
5.6296406902435736 -4.1442442318343975 -1.0100559542825869 71 66 63
5.6726056598422128 -4.1529280360793317 -0.9673625392109091 58 53 49
-2.5410584605035864 0.0033267767863027 0.0243154381805333 47 29 19
3.3875443788694248 0.5983990794937603 -4.9102657607580156 96 89 83
2.8015801400371982 -6.4315115250092099 5.2052988804308873 72 71 69
6.7243433832415631 0.3956138096773138 -8.2549292616559988 79 74 68
0.5608168859756723 2.0974912093595091 -3.8532101864314137 42 37 34
-4.3724318514116849 1.1160758518673459 3.1762382648247436 61 54 48
-3.1815517023667863 1.0340487840996011 1.9174762491683151 33 25 22
7.9468193794720170 -1.4199144119450513 -7.1976303797666823 88 77 73
5.1043060664884177 -4.0729840119871632 -0.5692744376184992 86 82 79
-4.8080442144225675 2.4812008231952567 2.0432840319654040 82 72 62
-2.9444578286085616 2.3386751351941304 -0.1295056001909248 40 35 29
9.7629498090017499 -7.3435501943586026 -1.1727620567852906 103 98 94
8.7716454434258058 -6.8073153583595181 -0.8991512033514933 72 68 65
-0.5993583837738177 0.8686899116274850 -0.7759277983709577 85 72 64
4.6446749591133925 -1.2061670261415827 -3.8666152157715539 66 62 61
6.0137960480897066 -4.1340041633775089 -1.2558954472241366 111 103 100
3.2061184329338714 0.6180315727174416 -4.7762520764618257 67 62 58
8.2253494834766752 -1.4344328376223472 -7.4721415544072975 93 86 80
9.5414939725637566 -4.3638310442054928 -5.0526500496566635 87 82 78
5.3826790757186176 0.4908600341908591 -6.9000997263973360 71 57 48
-3.0698851651211689 1.0331646626941571 1.7002153075260371 32 27 24
4.4767750753221502 -0.2696950398902341 -4.8715343567611402 61 56 50
-3.0698851651211689 1.0331646626941571 1.7002153075260371 32 27 24
9.0192307459584615 -7.2757634929322954 -0.5027922119019667 78 75 70
9.7803687550292420 -7.3110932697606197 -1.1753843221153875 102 97 91
8.6955842088820017 -6.7940569036643268 -0.6874281849104983 86 82 79
5.2817196010279286 -4.0720376181477338 -0.7344518951627239 93 89 88
-1.0629565340794218 -0.8219061953272581 2.1753084060372649 65 60 56
9.7535560147720428 -6.8862669691809915 -1.4851302373246751 36 31 28
9.5365353331807778 -7.2948231291672059 -1.0506654940753393 91 84 78
-4.9052576228699261 2.4978747779923864 2.0662258451863234 65 61 58
7.1596628953019481 -4.1355849259285007 -5.1663116334411399 59 42 35
9.5112570055745547 -7.2877152536277912 -1.0716243961368779 87 82 78
-2.7283503648308374 2.3297987357440455 -0.3765121748892990 47 42 38
9.8453652440047943 -7.3086642290413089 -1.4251445054489644 94 89 83
9.9609067594020768 -7.3246056848368859 -1.4565152745133403 97 93 90
1.7258013332506281 -1.0014923500402573 -0.8251937661143951 26 26 24
3.8909025747140467 -5.2716709654125058 2.4662439804871044 47 43 42
7.3749773910361736 -4.1158742311847760 -5.5459571387449689 52 32 21
1.1138605027969335 -0.9610534688544899 -0.3749855033307756 68 63 59
1.7499867152017781 -0.9982242882900098 -0.8478948776955317 19 19 17
2.0923252341981482 -1.0204393635770421 -1.1833147840105198 22 21 19
7.7847053737309979 -0.4449321660439002 -8.3026265328346547 133 124 119
8.8830934631439327 -7.2070871236496439 -0.4937823043989205 90 86 85
7.9048700236378613 -1.3835589998316729 -7.1905078393146038 92 83 78
0.8653651172539238 2.1296987842489949 -3.9665999633224813 42 41 37
6.7156263305966455 0.4344273110278499 -8.3022599546099478 49 40 33
-1.7793752697510241 -4.8588817138285094 8.2689991232185811 87 74 68
9.8063087375435369 -7.2652003458981982 -1.4343464361640741 98 97 93
9.8063087375435369 -7.2652003458981982 -1.4343464361640741 98 97 93
4.6152232602663652 -1.1622320396922945 -3.8367866965151456 69 68 66
-0.2181344154087365 0.8680915461330996 -1.3290509270626101 72 63 56
4.5528964739683335 -1.1619314101717906 -3.8957875982140466 69 68 66
2.9015592564340436 0.6922464464121597 -4.3010760467902447 51 48 43
-2.2190748725525373 0.7781941994358095 -1.5611859834930211 53 34 28
-0.2699194297538088 0.8799859541246482 -1.1718773887887168 80 69 63
-5.0344960849083256 2.4852799579513243 1.8239034415150943 69 65 62
-0.3202281718929203 0.8758733855113281 -1.2401982112516055 91 82 75
1.9352794838657050 0.7372003647010302 -3.5087539889220847 104 99 95
-2.9750864899021958 2.3575145391503387 -0.2758929202835564 45 40 34
-2.9750864899021958 2.3575145391503387 -0.2758929202835564 45 40 34
-1.8576806874158764 2.3063332538707271 -1.2117535830856478 77 60 52
2.2371268521699719 -3.8146757811642966 2.2995908745524782 94 90 87
8.6356814667422057 -6.6536011811165343 -0.9914727958798909 76 72 69
-3.2694334761319372 0.2742058371379291 2.7449603499408157 111 94 86
5.4262421535660854 -4.0235328842666460 -0.9763136504820316 61 57 54
9.4421826250622889 -7.2090901096875086 -1.0656642090864852 68 63 59
1.8536204064610609 -6.1826757510625674 5.9487911491888443 87 82 78
8.2767301308011980 -1.3816359973897900 -7.5799647455296455 99 91 88
4.3479154141049561 1.9114948316871165 -7.6853636560553218 76 71 65
-3.3135955618839952 0.3084025280535322 2.5893219244532903 105 90 83
-2.3993572258254350 2.3438833488571200 -0.7654483321183898 49 34 27
-3.3135955618839952 0.3084025280535322 2.5893219244532903 105 90 83
5.7225557488448491 0.5127201276151518 -7.3539792374264126 71 67 64
6.4256773435783341 0.4723990822173382 -8.0687811568949819 77 72 68
5.2906567148843662 -6.6332496756541728 0.0807946663642196 53 31 20
5.2906567148843662 -6.6332496756541728 0.0807946663642196 53 31 20
6.5436430904362854 -5.2556667069890857 -2.9397832725344579 57 39 29
-2.2969581523916744 -4.7884733018340899 8.7183512690168516 60 56 53
5.3458844303646416 -6.6345374647079618 0.0533899852995331 46 26 17
-2.2969581523916744 -4.7884733018340899 8.7183512690168516 60 56 53
-0.5854349961964618 0.9305967295569488 -0.7980158008062402 55 41 32
5.3458844303646416 -6.6345374647079618 0.0533899852995331 46 26 17
0.3111799664715402 2.1738957021262730 -3.5494664791619792 32 23 18
1.1330826989599592 -5.0215042815624544 5.3099194487823835 29 25 24
-2.5121994476502922 0.1121032579161615 -0.3269838515912751 35 22 13
-2.2140312413487986 0.8060584892923902 -1.5814289236979129 37 20 13
10.0956451175273560 -5.6123938141485921 -3.9254292793069276 41 40 38
-2.0932468666857753 0.8359457852095322 -1.3516926131290876 34 21 15
3.5931795263635591 -0.0961663956144199 -4.1526473257662984 78 75 70
10.0956451175273560 -5.6123938141485921 -3.9254292793069276 41 40 38
0.1964186970593146 2.1851856879060847 -3.4626337303763370 52 38 29
6.3896657797897909 0.4943175704372578 -8.0398882927613791 94 89 85
-3.2407480226750280 0.3174886982677783 2.3415260167565490 28 17 13
6.0837701487120928 -6.1952845569889528 -1.3397895070651786 63 41 28
10.1230389041144093 -5.5921379329466321 -3.9520967140074506 85 80 74
5.2335094198833030 -6.6062259129596956 0.1857551554341915 37 23 20
-3.1864782345253500 2.3915607740407032 -0.1048462235381227 81 71 69
-0.4800677996835790 0.9271986031025291 -1.1145597852747218 56 46 37
1.4217582150459065 2.1042697103833787 -4.7844337292524184 67 64 59
5.6899366737734036 -6.6231881721658832 -0.3624424259253917 63 41 28
1.4910689783509368 2.1243930519747529 -4.6848881362044610 57 52 46
7.5548889447717453 -0.3338856383788436 -8.1877318148624099 89 86 81
2.3903805747026188 0.7518158734824980 -4.0025154830416021 58 57 55
-1.4820668930583192 -3.5084181593059580 6.0809298553904796 87 82 78
0.8911394888065269 2.1497795707711753 -4.1885146598954490 59 55 46
5.9200835133818215 0.5314505769679219 -7.6106971423814809 102 98 89
-1.1535851381896980 1.9631357839256482 -4.3418872676723756 48 28 19
-0.0403871667859964 0.9361302644793995 -1.2509616544078010 62 51 45
5.5917742549052312 -1.1747296382089512 -4.8818811805668352 67 63 60
1.0531684498137119 2.1385531219774618 -4.4340655106428635 49 45 42
5.5785888065621680 -1.1733280673638207 -4.8966726705955477 67 63 60
6.9829928110629238 -0.2459043013734136 -7.6903543059517512 89 84 80
-0.0404871449215553 0.9377661611801994 -1.3874531578180314 40 35 31
6.2243327283134438 -0.1885808947981079 -6.9227085434926234 63 54 45
2.3502597958620060 0.7702306930820050 -3.9825743869009922 42 38 35
6.5663649333748202 0.5077288218480515 -8.2653328594007309 60 53 45
-3.1854955490825163 2.4131315665047981 -0.1251056503572923 52 44 41
6.0846798053410804 0.5435744332045123 -7.7990911503541795 91 86 82
6.0363655375845120 0.5543960924519777 -7.7249439922262280 101 98 93
0.1489292082814648 2.2122017531097935 -3.4630578118655109 56 39 29
0.1086743754302106 2.2055583687882097 -3.5104927620435102 59 45 36
0.5981069691258386 2.1806728471216323 -3.9899834403730772 78 70 67
-5.1514595013952640 2.5655562798975415 2.0732285933733818 90 83 77
6.3140041718193496 -0.1780988793702411 -7.0711904691188625 63 58 54
9.4557679986243173 -6.5834184955606840 -1.5102745588466078 37 32 28
6.1518581490427824 -6.1074054651178269 -1.5272464116286133 56 36 25
8.1176409584951088 -1.3232348859383147 -7.5127889055251158 110 101 94
10.1613558660796190 -5.4736073685455313 -4.1664300897724509 43 39 38
10.0709412120611415 -7.1228019141410055 -1.5454320481486474 27 23 20
10.1613558660796190 -5.4736073685455313 -4.1664300897724509 43 39 38
-2.5105076233890404 2.3764632254603160 -0.8561355561097979 48 37 31
3.9660410102254713 -5.0457176992514601 2.3504635637722235 55 54 52
4.3907048048573412 -1.0676409453644851 -3.8225011893393401 38 34 33
8.3297050673150874 -6.4445247897632552 -0.8518612018158649 78 74 71
5.2969990553174640 -1.1228758927448432 -4.6787732970354616 74 70 67
5.7037514288216560 -6.0468000788874994 -1.1295504973690806 59 39 30
0.6671029547127240 -4.7883678292434499 5.3525035074322931 19 15 14
-0.3834347375019814 0.9722019299630335 -1.2776433809206864 67 54 45
5.2512987844404062 -3.9094553973604524 -0.9213558633663292 75 71 68
9.1819343498057346 -6.9822319327811782 -1.0573153951540171 63 59 56
9.9342585714803366 -7.0512790036736943 -1.5192740677836702 29 25 22
-2.4547381183995629 2.3845225862729147 -0.9104211218308212 93 82 78
6.4608294144755360 0.5494647652723375 -8.2128401495498959 108 103 97
6.4608294144755360 0.5494647652723375 -8.2128401495498959 108 103 97
7.3846005833895667 -0.2381399616751716 -8.1309495316569187 89 85 82
7.8897803842766496 -1.2738120471974956 -7.3334815799740749 98 93 89
7.3846005833895667 -0.2381399616751716 -8.1309495316569187 89 85 82
-3.2284609798901438 2.4386911529313844 -0.1199050485397129 56 47 42
-3.0665233075524165 -0.6815303444320113 1.3646271149831080 40 23 13
-1.4301099364786578 -3.4403719402494590 5.9264493021047855 80 77 72
0.7411482747075679 2.2067944736890968 -4.0136363764181970 40 36 33
6.1443839596046494 -0.1536437650740919 -6.9086792997388571 117 110 102
0.7536591190020652 -4.7668549768903645 5.2398175596123329 26 22 19
0.7536591190020652 -4.7668549768903645 5.2398175596123329 26 22 19
6.0731349893877207 0.5849648306147419 -7.8540587564336981 82 77 73
6.0731349893877207 0.5849648306147419 -7.8540587564336981 82 77 73
7.4865081755006795 -3.9690687525225474 -5.8494548652132643 48 25 17
0.5467555440340890 2.2182491064994960 -3.8953633648761747 47 38 31
0.5840825564323977 2.2093300195623109 -4.0008274229973582 52 42 40
2.1111979315916916 -3.6593386743820955 2.2486370939819063 67 63 60
10.2325029376344929 -5.3719851804166581 -4.4629103939917742 67 62 58
2.4537762423678968 0.8202904569967403 -4.1992761641383103 73 69 68
7.3194690992449578 -3.9553771704442329 -5.6060738748070849 46 27 20
8.6099202217188200 -1.3029506095749246 -8.0744452158269606 91 81 72
2.7579109271099034 -0.8815750330442507 -1.3167577475798355 35 34 32
-1.3013120355285208 -0.6490615000746344 1.9279561944771775 61 54 48
5.5324718615600599 0.6391083872437431 -7.2750006946329275 78 71 65
6.0741952552499123 -3.9148637598586489 -1.4678574930780055 28 27 22
0.1505970738258463 2.2510245329257459 -3.5010008118387379 73 59 50
-2.6886214175522549 2.4219923743187528 -0.7114246749687732 52 43 38
-1.2063221767925281 -5.7174090360113254 8.7561160540734431 54 51 46
6.3456354011804752 0.5907180518648548 -8.1306525041507776 79 76 71
8.1649541784057593 -1.2480735418233113 -7.6511853976789199 88 77 71
8.1649541784057593 -1.2480735418233113 -7.6511853976789199 88 77 71
8.2950038458573836 -1.2542861914877537 -7.7847088584903306 97 87 78
6.1462032556977073 0.6089369258332784 -7.9117236867381875 74 69 65
0.5542484763764448 2.2216004586806299 -4.0084758635345086 79 70 65
6.1738459791765665 0.6027937743786915 -7.9747362848671237 95 90 86
0.6171552431757651 2.2341850964988965 -3.9359853839632479 79 70 65
0.8066195138964454 0.2062916629547685 -1.2741235283771974 46 36 27
2.1792028521341296 -3.6269139368367012 2.1707051736859881 72 68 65
0.8651037301577579 2.2052762260481797 -4.3353434845402354 63 59 56
0.7389144756063759 -4.6877209552224031 5.4437349994097302 32 28 25
8.0999780892712359 -1.2294846197248392 -7.6148854282401963 100 89 83
1.6366019126739155 -3.5708554953901452 2.5471960649321361 62 58 55
5.6607546173576448 0.6530689012092892 -7.4870118969262558 71 67 64
5.8708925214808350 0.6420558325180202 -7.6800153133273099 98 93 89
0.6309646271159836 -4.6638648050115830 5.2499681999640586 25 21 20
5.8708925214808350 0.6420558325180202 -7.6800153133273099 98 93 89
-1.2110290484652668 2.0363220241043924 -4.2245938632187352 54 41 35
5.4576269724391242 -1.0542516645739952 -4.9645086664038685 104 95 90
0.6805980184576296 2.2194607898761336 -4.1331655258819877 40 36 33
2.7706380336899255 0.0894250342725599 -3.4563313303824725 71 70 68
5.8403149392651379 -3.8566196994273536 -1.5401427831904475 33 26 20
3.4980600023145940 -4.8217408817491991 2.3333855752549026 37 33 32
-2.5200067595810571 -3.3142338585836844 8.6435551444544050 17 16 14
-2.3671065209382913 2.4141359814457757 -1.0449042519823839 79 66 60
-3.3274865302667367 0.4692358190950242 2.4383864804088478 78 63 56
-2.3671065209382913 2.4141359814457757 -1.0449042519823839 79 66 60
-2.0004130837276080 2.4043630513155594 -1.2734592873996282 42 27 20
-0.5527836382908417 0.3115723756348967 -0.2076557516502004 67 57 48
-0.4403194568275849 0.3195208011680497 0.0012259234721900 63 53 44
6.4657182347772633 0.6054534334473166 -8.2744217029839966 115 106 101
9.0858470659425379 -6.8968901668857052 -1.0191429476268610 71 67 64
7.7416641812415019 -1.1845259021264025 -7.2914341358674593 92 88 85
-3.1572993228149038 0.4684498862640885 2.3775486598992521 115 98 91
-1.3854356806284762 -5.5941898429303105 8.8608727710758881 76 72 69
-1.3425156621644998 -5.5801793602687004 8.7046167194569950 77 72 69
6.4352606070180025 -0.1241084838947164 -7.2799209701171437 68 64 61
7.3384908232679171 -3.8745192667811557 -5.7626241889285090 68 49 43
9.8512880855818103 -5.2282929927194042 -4.1405910393427003 45 44 42
6.9316324014688533 -0.1460531680332001 -7.7745927926325837 96 93 88
8.1074047585645612 -1.1891601457474352 -7.6745767340135203 90 79 73
-3.0741621099322378 0.4825981101044594 2.2054524440363119 96 81 74
-2.0458045954982653 -5.5275940468713198 9.4389128588169342 60 56 53
2.4961847379544508 0.8569879630118675 -4.3592221735454508 78 73 69
-1.4022349662812523 -5.5535043333813237 8.7638143220017195 59 55 52
7.7827515352278622 -1.1593475898165162 -7.3680291500085158 82 78 75
7.3727253505430905 -3.8511637109223105 -5.8338453528925180 62 42 33
-1.3688188312182501 -0.5671120214020211 1.9266559192061348 53 42 36
-0.9478734098226720 -5.5791943059163165 8.2779144962400810 60 55 52
3.4793265287082442 -6.4913100992816215 5.0961065013245035 32 31 29
7.4158912018009513 -3.8447211365736411 -5.9467199572516192 58 40 30
4.8858199464292129 -5.9851281061650345 2.3808004121784991 31 24 18
7.8766355195981577 -1.1568770783145030 -7.4711704143814703 90 82 79
3.0195185729083134 0.1403962035149594 -3.8255725314018121 74 69 65
1.9823390215144678 -6.3254637659983661 5.9787527625011254 77 72 68
6.0040817044484793 -0.0349503029822459 -6.8982095177517095 115 106 99
-1.8454862465107960 0.9151026682170876 -1.9697646624911309 47 27 20
2.3472083551485876 0.8815943884186564 -4.1121011424482381 81 76 72
6.0504728658690237 -0.0367963503843568 -6.9771699690766633 93 86 80
5.9655360819769614 -4.8830313513737389 -0.6444570378597549 42 25 18
8.5951886051619777 -1.1988165142966127 -8.1993005708456490 99 86 78
2.1113300160314785 -5.7541705787780870 5.1060381923967881 77 76 72
7.1935696334971855 -3.8397447132805609 -3.5478386774468422 33 24 19
-1.2444898147438750 -3.2816402385343046 5.4900388191987828 65 61 58
6.3505833140698433 0.6408203168563369 -8.2115943201095032 110 103 97
-1.5135923197892784 -3.2562444860548183 5.6933948571359254 72 68 65
-2.6985523032722232 2.4437076069879100 -0.7084769480526987 70 62 59
-2.6985523032722232 2.4437076069879100 -0.7084769480526987 70 62 59
1.8341090229530741 0.9145031988938964 -3.6453009282594491 77 76 74
0.0962986516917584 2.2670366020554322 -3.5714468200505078 28 19 12
8.1903436371953902 -6.7254952202069074 -0.3283340272535400 71 70 68
7.7609276166518599 -3.8321491630049804 -6.3123207081652026 47 27 16
-3.2965283569433064 2.4801307939147530 -0.1140471718496746 87 82 78
7.8302697051678658 -1.1260028122716084 -7.4603113455564349 84 79 75
6.0304560376883529 0.6620409126486004 -7.8844896878431401 86 81 75
6.4335751378397843 0.6366254602471775 -8.2753594458486432 122 113 106
9.7484284272250648 -6.8414495666050366 -1.4789762062853797 18 14 11
8.8444555178764759 -6.2087021061762586 -1.5463865592182577 37 34 29
4.7360307017710523 1.9969474453938891 -8.2425445631774625 115 106 97
-3.2297413972270448 2.5043492869026789 -0.0425137943799818 54 45 38
3.0433615641261476 -6.3376310550093127 4.8750784134836573 86 77 70
0.4846526580904540 2.2726776391159711 -3.8127175165509910 65 52 44
7.5500362992396814 -3.7975851614504945 -6.1210873939295363 40 22 12
4.1506229828854542 2.0323238816682929 -7.6322970944095001 109 104 100
8.1202884400767346 -6.6601218383433824 -0.4454539845517290 92 88 85
5.5211155474211822 0.6999527299781304 -7.3675266639110459 71 67 64
-2.1934643560203368 2.4224301394504684 -1.2544192849978444 79 65 56
5.1643897240760843 -0.9385461491003140 -4.7308705514821972 65 61 58
-3.4888580848389101 1.2678298424323027 1.7762425486941817 62 55 49
8.1550742741009810 -6.6698755121157971 -0.3409427577298469 105 100 97
-1.9936360246796909 0.9371601895821515 -2.0251400176941385 55 38 28
2.7357313124654405 -0.7199913661791273 -1.2669865715509572 31 30 28
4.4860125756963374 -0.8907205802398100 -4.1439846679680210 80 76 73
5.4197564517811969 0.7114911117253953 -7.2387262890578139 63 56 50
2.2970817428448251 -3.4666586372919488 1.7572668254501567 84 80 77
8.1452427227648769 -1.1133001736432890 -7.8271333023772005 95 86 79
-1.2912718718133465 2.0708542426103098 -4.1757265747457222 43 28 21
-3.0430586276531297 0.5371495053296299 1.9286955801955572 132 117 110
8.1315674448863273 -1.1061468589235162 -7.7981204620014788 41 30 26
8.1315674448863273 -1.1061468589235162 -7.7981204620014788 41 30 26
9.0537127870994212 -6.1783395992215189 -1.4889595386490004 26 23 18
4.6299856639408281 -5.8507368331339817 2.6250416525328681 41 34 28
5.2521625604592801 -0.9224891195454610 -4.9399417929186296 105 98 92
5.4454401166335371 0.7215346176015379 -7.3361441238478369 61 57 54
8.5495640556014809 -1.1261970397497432 -8.2493977854254137 93 82 76
4.1950033284959183 -0.8415297080064053 -3.7786459297193264 69 65 62
4.1407276330240279 -0.8418712419314089 -3.8317940970636886 66 62 59
-2.5102898658877124 -4.2150996682892190 8.2457129950961150 29 22 16
7.3776296760831510 -1.0530678686766235 -7.1182036211791822 85 80 76
-2.2345634426276337 2.4675422087419139 -1.0293690513386931 66 51 44
-1.4588973157350360 -0.4750344900297168 1.8759020390432681 99 86 78
2.9961530992463721 0.8830558270837059 -4.8938291756743890 56 48 45
0.1422843570327391 2.2974394797399853 -3.6574539778963109 97 84 75
8.4142629078858633 -1.1063868741907326 -8.1130436610500762 57 46 40
-3.0296562432772585 2.5138439612403984 -0.2939173519281128 55 51 48
0.4192349607538630 2.2927717021063789 -3.8598086473445816 59 48 42
7.3366430170119781 -3.7679378374037902 -3.8447526662864142 38 31 25
6.3264437804087006 -0.0112707258099780 -7.3431784598527372 82 77 74
5.1882612116628435 -0.8867264848101620 -4.9117352806078296 72 68 65
-1.8332868460473537 0.9663839179368909 -2.1313638260323033 49 29 18
7.3111908372588665 -0.0733504231654250 -8.2982324402754788 117 108 101
1.7066789629447472 -3.3810077233821372 2.2858322229785850 39 35 32
4.9777081168112156 0.7750760047900201 -6.8384405731933038 75 70 66
-1.0588020734402142 -3.1830672170565419 5.0752227976476281 73 69 66
2.2324940754151581 -0.6578495563953113 -1.3865568291500423 35 31 30
9.6732376623382237 -4.9874856697592440 -4.2619223195152172 39 38 36
-1.2826316062037137 2.0822721716527699 -4.3449727154687787 47 29 19
6.0547566699038526 -5.6757359081766916 -1.9487380484481034 62 43 29
2.1003902208404686 0.9548094780666451 -4.0124077397933231 43 39 36
6.7699437087138046 -4.6799975886987539 -4.0206570390558776 57 40 33
8.7499512939386470 -6.0618548414467668 -1.5116025824322543 22 18 15
8.0311429497419926 -1.0525750192850893 -7.7726168115447649 80 75 71
9.5165704041960009 -6.7655366654290239 -1.5082042964543381 26 21 17
-2.3370498752708118 1.0059707491230296 -1.6960637943879668 42 31 25
6.0445172764226127 -5.6408669890483711 -2.0758388116448807 50 30 21
4.3146968709541786 -0.8057619880793198 -4.0725239788103673 81 77 74
2.3209104824833369 -5.6101273594709555 5.1506554434825258 31 24 18
5.7147856443471126 0.7459889373662589 -7.6450006544847797 79 74 70
0.0098142340593765 -3.1314901950192988 -2.4894827102239714 71 71 71
8.5065229382337453 -1.0723370337380955 -8.2575210252303322 50 40 38
4.7957830940438706 -5.7458684672077496 2.3891257040289520 64 55 48
5.7780281639693101 0.7458020277510560 -7.7056970493224783 67 62 58
2.2844188004275430 -0.6355368636213765 -1.3704656224039709 20 19 17
6.3255889457247276 -5.6436139509902929 -2.3516321778755973 30 13 5
8.0656092747623021 -6.6036616522688121 -0.3509752412081417 104 99 95
5.8905924927830071 -4.6649578354780896 -0.8069288439224521 63 43 34
4.5237515384658913 -0.7982101618472104 -4.2357318103822506 72 68 65
1.5863577222329119 1.0108868830377604 -3.5100081248096942 94 89 83
-0.5044164093425084 0.4641598388173829 -0.4825440164965665 53 48 45
6.1211342574737122 -4.6771798973390881 -0.9781578739785175 61 44 36
8.0900162090112318 -1.0261704689830133 -7.8687121967680822 40 33 27
-0.1825697381309942 0.4515155587725651 -0.8170519712002895 44 40 37
-0.8303702461758614 -3.1653886421023603 5.1995761206334361 83 71 59
2.8390599402661048 0.2741517018975737 -3.7569482140979380 47 46 44
7.8696012228294521 -1.0013172157827430 -7.6660331379953037 67 62 58
-2.3851599476943672 2.4827416859376159 -0.9696242092203315 44 33 27
-2.0571671229096418 -3.0561095621704046 6.1059052249430383 88 83 77
-2.0715909940138042 2.4691107600844511 -1.2697605552028546 45 32 24
10.2653559230737770 -4.9547502611659926 -4.9990787559540051 83 78 74
-2.3008285586691559 -5.1931772387152035 9.2954852745298755 81 77 74
-0.5113383403650920 0.4980089610443019 -0.4846204303261851 69 64 60
0.4017689298053351 2.2985778620085706 -3.9505875919814817 81 68 62
2.6702485411490335 -6.2162081085198739 5.2859406019745840 41 37 34
0.5720849334544239 0.4541033349535209 -1.4359052944768380 22 18 15
9.4200326230407647 -6.6806895827515698 -1.4967261679012955 24 20 17
9.3942003129306073 -6.6734489441055844 -1.5237560834578132 24 20 17
-1.1095260721549518 2.0819308085140609 -4.5563872091865569 64 42 31
-1.1095260721549518 2.0819308085140609 -4.5563872091865569 64 42 31
9.3577223312067606 -4.8429609782642995 -4.0969570335215302 56 52 49
4.4132270965232872 -0.7536045528685262 -4.2285932948374008 68 64 61
6.3112890810971800 0.7235221698641160 -8.2689875667055670 119 110 103
-1.1718108758966648 2.1011914499129873 -4.4135751547930058 49 30 23
4.5437365311778715 -0.7570172431512362 -4.3887384526418778 67 63 60
7.4420007722395907 -3.6114459670205523 -6.1883887362277621 27 19 16
4.9034509851387060 -0.7747019684044658 -4.6278938841311454 86 82 79
7.6507954633859994 -3.6194572964043474 -6.6640195104080089 61 39 26
1.4971461532240711 -5.3735682187446061 5.4204403502243386 36 32 29
5.1272975602570394 -0.7949413499176573 -4.9744561860167247 63 54 49
1.4971461532240711 -5.3735682187446061 5.4204403502243386 36 32 29
-1.2786394270793864 2.1184557945525357 -4.3066951400133329 61 39 26
6.3581565904772619 -5.5228188554536208 -2.5399689165615689 44 22 11
-1.0998948649240139 2.0932974729503857 -4.5831497758019566 38 23 16
1.5830161809884604 1.0335141238114101 -3.5453861199786503 49 46 41
7.4719776021855049 -0.9323717105170406 -7.3063984707621099 61 57 54
0.0586038991237782 -4.2143539374919943 5.5796857712238239 82 79 74
5.6906483666126055 0.7781954742840373 -7.6619583946524452 98 93 89
4.7038790566880309 -0.7524020532084019 -4.4851443438839897 63 59 56
-2.5989286116529429 2.5168555930547019 -0.9379948283267072 33 28 25
5.8460618985232893 -6.1430217528122348 -1.1979029159020562 43 23 14
1.6201883659807934 -5.3173876644638165 5.0662581413671255 76 71 67
5.8460618985232893 -6.1430217528122348 -1.1979029159020562 43 23 14
-1.8194629188667848 -0.3410705402570461 1.8646086580750456 88 68 61
-2.3018633582593870 -5.0496266316866967 9.0755148541637602 59 54 51
7.9105238362215609 -0.9525463371144194 -7.7684873000088190 66 63 58
1.8502153383338302 -3.2276888613121177 1.9549569189480376 77 73 70
-3.1830663881127506 2.5924282460935291 -0.1154587232388563 70 65 61
-2.3018633582593870 -5.0496266316866967 9.0755148541637602 59 54 51
-0.6413481477483449 1.1797852117497969 -1.2804232422482533 80 69 63
-0.3723510048240472 1.1898656286104008 -1.2712569865217298 39 30 23
4.9523090506098795 -0.7627425887479192 -4.7745271516008696 65 61 58
-2.6964331429589814 2.5316169073518626 -0.8301311855421785 43 38 34
2.0352057893294084 1.0104516363943858 -4.0079749221126653 40 36 35
-1.5470585248516502 -5.1015290355910370 8.3871072042450034 71 70 68
4.7023928706728553 -6.2606272057494143 2.8479101956231370 116 108 105
2.8078471756972165 -4.3103482552891252 2.3294324863623626 29 25 22
8.2907387077795782 -0.9659682437081885 -8.1447714826972497 103 92 86
-3.4209584956788461 2.5879935393163804 -0.0393921393481514 73 69 66
8.2907387077795782 -0.9659682437081885 -8.1447714826972497 103 92 86
2.4486108182737234 -6.0979681521031521 5.1662789320019549 77 76 74
0.5279698905575935 0.4610411585242654 -1.4004815963861132 28 25 20
2.8078471756972165 -4.3103482552891252 2.3294324863623626 29 25 22
4.9731660141362672 0.8371737851483915 -6.9688532257626603 36 31 25
8.3656220912428214 -0.9667937575817731 -8.2369144202619555 96 87 82
0.7245095399852934 2.3290226341948039 -4.2569235080878007 62 57 51
10.3212609275684262 -5.8698049529380354 -3.8951356058125914 73 68 62
8.1953873618932889 -0.9500086442034572 -8.0903469028715200 46 37 32
1.3163868142879322 2.3097158478261077 -4.7659109962559274 101 91 82
-1.2598400795949261 -0.3172320730398540 1.8880059411565882 23 15 12
-0.5787531969032094 1.1978284468919722 -1.3769312725894050 99 85 76
5.9114236829790521 -4.5038619596511476 -0.7489180667472484 42 31 25
-2.6233091988392521 2.5358242663280857 -0.9329762594224117 40 35 31
0.8342113582192587 2.3239467525555733 -4.4508059789970584 62 57 53
3.3332232322213966 0.2804227894352339 -4.3908668294354491 72 67 63
5.4207759435012468 0.8286220922209609 -7.4300628225264695 73 69 66
2.9478232946047003 0.9915512570110959 -4.8489577068356526 89 82 76
-3.1094184522777866 2.5746078306590041 -0.4367185442556994 35 30 27
-1.6764334080581160 -2.9215377799009330 5.6425009058199151 64 60 57
8.2417810090611994 -0.9257511479237623 -8.1762720157579682 45 36 31
8.2998075177910664 -0.9306444055780109 -8.2362636280938624 88 81 75
-3.1489536693554849 0.7064390478300223 1.9299773053907581 82 68 59
6.2457506271682695 0.7860536652438250 -8.2706158075105201 108 99 92
9.9821761203079653 -4.7311546591123479 -4.9864278843371510 78 74 71
7.1272320538062601 0.0750536600178478 -8.2957213199438904 116 105 99
8.3659472457321709 -0.9317368807549363 -8.2921954585768827 40 32 29
6.9755628731989177 -4.4383423781870022 -4.5241183974830852 63 46 38
-3.3738504734934587 2.6307116451355466 0.0429486820671376 91 82 77
4.9310103080558605 -0.7072954880583342 -4.8544737548657313 83 79 76
7.2490025699658425 -3.5001474935274945 -3.6608189944396781 64 51 43
-3.4500284776880119 2.6088570769956121 -0.1030450974114375 103 88 81
-1.5452313801002422 -2.9148613766196800 5.3709131437028024 73 69 66
-3.3488928515747833 2.6007345603373802 -0.2214963797355120 57 52 48
1.5231108159553468 1.0906489009495592 -3.5114507714317886 38 33 29
4.8793710154447982 -0.7042251573098429 -4.8221573811821115 81 77 74
3.2010680268408658 0.3452883863342908 -4.1714309701572345 93 88 82
2.7190616666000809 -4.2127418007039283 2.2539970255565329 86 82 79
1.8745289199185100 -0.4821391425275051 -1.4331450353380846 26 22 19
1.1870264415330241 2.3282761227369253 -4.7640766946815329 63 55 52
7.6467182737284194 -3.4739402030686599 -6.6798885487744659 49 27 16
5.8503983479555899 -4.4256949997853967 -0.8099376282200178 98 88 86
1.6970837663625593 -0.4707617776964391 -1.3355336286981976 42 35 29
9.3880365962449144 -6.5860655854487256 -1.5099599844268909 25 20 16
-1.6995491002308638 -2.8723884604217260 5.4509733979988129 68 64 61
-1.6995491002308638 -2.8723884604217260 5.4509733979988129 68 64 61
4.9238260230597088 0.8887882220841844 -6.9844223823816254 81 74 68
