ply
format ascii 1.0
element vertex 704
property double x
property double y
property double z
property uchar red
property uchar green
property uchar blue
end_header
-0.0271945520240567 -0.9952731199855289 -0.9260354447327324 55 57 52
0.6673975407907740 -0.9984552581420456 0.8685630288178515 24 66 20
-0.1496657402317796 -0.9954517502877184 -0.8711748085978842 57 45 47
0.5882973188148243 -0.9984771766593707 0.8318909616227076 40 35 75
0.8675881826029959 0.2727754483148320 1.0017733865179366 59 19 17
0.8619651035346102 0.1896724983853840 1.0019672494844494 58 58 56
-0.8581136841123996 0.2284289618950170 1.0008694271127154 167 167 167
-0.3409939235695971 -1.0022517376925852 0.1607017217662771 56 58 55
-0.5841862749525577 0.1592587015594096 0.9996829807797801 159 153 181
0.8090457939405648 -0.3493950440419796 1.0029902057349591 142 149 142
-0.5115666341539660 -1.0019545595618502 0.1455903469652775 30 9 50
0.8288030414958260 0.0719739467547404 1.0004398961132825 31 24 31
0.8288030414958260 0.0719739467547404 1.0004398961132825 31 24 31
-0.1624938097492016 -0.4806257253973737 1.0014025574555905 19 74 69
-0.7578940114193908 -0.1318259868842633 1.0010189442882422 21 77 78
-0.1611253280581868 -0.4802383462889371 1.0016335063496389 19 74 69
0.9873052908266917 -0.1324568142295194 1.0024824644828385 135 23 63
0.8266962236715665 -0.1913036219147071 1.0013606856853965 59 12 150
0.6065831957088569 -0.5383263468994073 1.0000598051822418 146 145 150
-0.1544338608324163 -1.0002411511060452 -0.8839444134001618 30 25 29
-0.0966655709339276 0.0807335630841562 1.0025432893259540 178 153 24
0.1359980441890208 -0.6022633487443410 1.0013249860637585 153 148 155
-0.2467338500701152 0.0245420192140975 1.0001765135206324 24 76 74
-0.2914528000922720 -1.0025916243324284 0.0158620846634169 54 53 58
-0.1604486463573619 -1.0017556597003543 -0.9025154322057324 57 55 58
-0.1301830988391093 -1.0006596337691838 -0.9410610218088948 31 20 28
0.5882973188148243 -0.9984771766593707 0.8318909616227076 40 35 75
0.9099926691991203 -0.1638944535907971 1.0020505486737170 107 19 123
0.9927984195677174 -0.2106957831609412 1.0021085882444449 165 151 86
-0.0924802840857395 -1.0002822450285775 0.7086966042478841 43 46 39
0.6425827137764411 -0.2261314647934536 1.0003247954044865 147 145 146
0.3557460246710851 -1.0002532247486835 0.6544397535463937 19 69 68
0.2364424368515272 -1.0005866581306448 0.6503396126539768 25 43 29
-0.6495366901372155 -0.2579451788890475 1.0015267745726772 168 158 159
0.6469389029570987 -0.3090990734176172 1.0000723017168487 190 185 182
0.3127270641599875 -1.0001723753172946 0.5297038805866817 47 58 60
-0.4567958100836513 -0.9974054481426247 -0.1342810793828635 61 15 17
-0.2642196441675563 -0.9997365796446520 0.4338807504508813 55 55 55
-0.4567958100836513 -0.9974054481426247 -0.1342810793828635 61 15 17
-0.2644910339705436 -0.5862966456356951 1.0068097425018956 28 103 62
0.4559259144550514 -1.0007689127279344 -0.3405125673647680 11 23 21
0.3250689630371921 -0.3607776656820091 1.0012257962151012 21 65 64
-0.2083351796698188 -0.6725014303889285 1.0013655747315477 158 140 162
-0.2083351796698188 -0.6725014303889285 1.0013655747315477 158 140 162
-0.5109994783163432 -0.7350084497401401 1.0011861268995810 180 102 100
-0.8149127174681501 -0.7439553100280025 1.0013956576272602 58 179 22
0.0711115269132613 -0.8359067035766313 1.0210686251686727 152 150 151
-0.9947424752718765 -0.8077924490470764 1.0010844361769871 166 149 157
-0.5562359425737274 -0.9086512242433249 1.0033026832339689 174 158 70
-0.5038975748494334 -0.9723669601980593 0.9998394477696041 173 19 11
0.3946047671356119 -0.9992758045369137 -0.5956271064008771 77 55 14
-0.5991624999934625 -0.8957063840182273 1.0011755982261199 171 161 64
-0.5991624999934625 -0.8957063840182273 1.0011755982261199 171 161 64
-0.6288394311508197 -0.9291037308170647 1.0034109388491230 49 179 19
0.3402160909817948 -0.9994081754313847 0.3077142413024824 56 56 48
-0.6247033111115435 -0.9289583621099082 1.0027903712510113 49 179 19
-0.1373190374851734 -1.0035357228395387 0.2076503441152374 34 29 33
-0.8946676239190525 -0.9973697746808645 0.1717668196896744 58 28 26
-0.2920633672616564 -0.9973617887244111 0.4156204037317835 58 56 57
0.9326978862867982 0.6764443331587201 1.0016837552938476 140 146 136
-0.2576441955864890 -1.0039812078797901 0.3494536516388325 34 22 26
-0.2576441955864890 -1.0039812078797901 0.3494536516388325 34 22 26
-0.8267797081732522 0.6260740137775668 1.0022464044430537 167 165 166
-0.2504276013471322 -1.0006836989334669 0.2168545251160175 43 53 55
0.2692613328741369 -1.0020987057912352 0.2043389623554461 56 56 54
0.1057812121423449 -1.0007715979751326 -0.8041327120771669 57 56 51
-0.9789724729800039 -1.0028940439624945 0.1955353935934194 51 53 50
0.0671468051348804 -1.0048288034431212 0.8503469014081384 53 55 52
0.1390765726624716 -0.9979199392038419 -0.9452180176633925 21 69 17
-0.4296575077179431 -1.0009886620224688 -0.9753549385089950 22 20 31
0.6302137185103334 0.5710690996461015 1.0014760833691960 170 170 162
-0.5230070100674113 -0.9984366849263026 0.1721549791388904 62 36 37
-0.5230070100674113 -0.9984366849263026 0.1721549791388904 62 36 37
-0.7688735956672812 0.4620673849531398 1.0001267969751124 185 188 171
-0.5142848463309846 0.3733776301491595 1.0010648544291976 166 161 158
0.0457710694423194 -1.0024917976227437 0.0999899701197946 12 22 23
0.7438030079471094 0.7890056129971215 1.0018965308466672 166 171 164
-0.9862253062106670 -1.0023697772857376 0.1658710719640240 11 20 29
-0.7002302384144876 -0.5940876261299570 1.0009497175972912 156 160 161
-0.4142752092733609 -0.9980503805449623 0.0659927931054391 9 23 24
0.7778029184548042 -0.9948956034185363 0.9778459776948372 15 10 68
-0.9197624577277218 0.3372958668155396 1.0039742933772720 184 19 17
0.3331823241535695 -1.0044531392063465 0.9200653272235350 56 56 58
-0.5287418558257021 -0.6174640011864330 1.0020945700003725 44 33 153
0.7298153288527107 -1.0012801874965238 0.9152664811702024 16 12 73
-0.8624367457498774 -0.9967091215026581 0.0295278926556062 56 56 56
-0.8624367457498774 -0.9967091215026581 0.0295278926556062 56 56 56
-0.1557952050442016 0.5499465844232895 1.0012540264758667 75 65 29
-0.5190192155999802 -0.6995036695235931 1.0021934770092518 178 157 152
-0.5267848923126847 -1.0005875955869292 0.8929615485367892 18 20 9
-0.3149190876075483 -0.9975169249138943 0.0855915399406241 55 57 56
-0.3605158290032555 0.8533950834706170 0.9996866701272559 182 160 38
-0.2981077387778813 0.8462340106633184 1.0013820788330776 157 162 156
-0.8696152368980397 -0.9975523414579643 -0.0165509446106223 15 10 74
0.2268853161065892 -1.0004972078042502 0.0810444950623242 17 14 69
-0.6360868450847547 0.7936590404731637 1.0005187113108243 161 167 165
-0.4206818429477677 -0.9939452887711573 0.8553117766684235 16 22 8
0.6786445656764666 0.2263295606648220 1.0003107667252154 23 64 66
-0.3060406925906562 -0.9978573179765980 -0.0342622766554945 13 10 77
-0.7831520424823160 0.2107678513741390 1.0022172140546495 187 14 18
-0.2107335868882304 -1.0004346698307860 0.0023856636296793 53 54 58
-0.4405408718417831 -0.8625284628692539 0.9991983718783380 164 156 154
-0.6022122849227476 -1.0068313911818672 0.2867275261307043 73 11 12
0.3545892677063155 -1.0000925339378683 0.2805340413556488 19 11 71
-0.2021132205793377 0.5744938436738805 0.9993285588232468 14 178 179
0.6708849233925080 -1.0048304252074036 0.8300763694744708 15 11 72
0.3545892677063155 -1.0000925339378683 0.2805340413556488 19 11 71
-0.9273111552617831 -0.9979062680386416 0.8071414148817333 56 56 56
-0.5346368016101943 0.5501299817469452 1.0014773435806328 162 163 157
0.4100443653241717 -1.0011275801980866 -0.0607221979784490 14 9 73
0.4442913047424279 -0.9765328875757202 1.0025538797772438 164 167 156
0.3796683130289911 -0.9990960002128055 -0.0681414332368313 72 73 59
0.5186140722041596 -0.9980147207199207 -0.1584719059416972 39 34 38
0.6926914118523994 -1.0024014476597860 0.7977004275600286 67 72 66
-0.0866580057084779 0.4240141734141223 1.0015119484408450 155 161 161
-0.0866580057084779 0.4240141734141223 1.0015119484408450 155 161 161
-0.7377578547870368 -0.9969753477895645 0.7906511849580756 56 54 57
-0.9417003257744849 0.4211685197803788 0.9992917506694142 193 18 23
-0.7377578547870368 -0.9969753477895645 0.7906511849580756 56 54 57
0.9075355828826837 -0.9945411171070381 -0.1656549509334585 57 57 57
0.1673338042831025 -0.9981374387220903 -0.2060894509007455 54 55 59
0.1673338042831025 -0.9981374387220903 -0.2060894509007455 54 55 59
-0.5579186084890266 -1.0024784618955989 0.2441598520941075 13 73 9
0.4882577444058046 0.0083686663998133 1.0093178020090683 73 73 73
-0.8076396739796514 0.3232430529720324 1.0045921763887695 184 18 18
0.5141933672655734 -0.9892437319224815 -0.2759957774285884 14 13 71
0.5956691716982991 -1.0015514466251483 -0.2891279953091040 57 58 53
0.2641729657747904 -1.0089567645115749 -0.3058538705464298 18 12 74
-0.9483223811222993 -1.0031049324450250 0.7409983756890227 56 56 54
0.6296927521242078 -1.0011276415254926 -0.3312653230202590 9 23 23
-0.1720379891742936 -0.9952543231224105 0.7302448583729647 55 57 56
0.8760766133977381 -1.0101646882533852 -0.3940359704709770 56 56 58
-0.6891642183912582 -1.0030966294182369 0.6519630399687341 55 55 55
0.7709223341167973 -1.0015627623564234 0.0915866129403757 18 24 10
-0.8336196219578830 -1.0029365579062270 0.6197884112768394 57 55 56
0.5439288781427433 -1.0003738079036641 -0.2965810187470501 56 56 56
0.5439288781427433 -1.0003738079036641 -0.2965810187470501 56 56 56
0.3263771256461792 -0.9992959014253620 0.8526541864637844 55 55 57
-0.7140347890525449 -0.9990974674278704 0.7174636772722127 56 55 51
0.8168929835248051 -0.9981363534069045 0.7161202328730683 53 58 54
0.3872957363784560 -0.9987373212388481 -0.5169146518959821 72 58 11
0.7771619474707213 -1.0015651920633593 0.6045247086967861 71 70 65
-0.7016465407369324 -0.9992959747653208 0.6863432796952867 18 22 8
-0.3013058516098999 -1.0004277475389378 -0.5274415804531114 17 18 20
0.8229707416873249 -1.0019253763516314 0.5715579493429146 21 23 12
0.1555206802111836 -0.9966873546165363 0.6806529782647758 56 58 55
-0.8076396739796514 0.3232430529720324 1.0045921763887695 184 18 18
0.5792536951805520 0.2999026143328151 1.0027375099976674 79 13 14
0.8359358016768296 0.3013962428794315 1.0019602608633713 23 21 24
0.8553600838213983 -0.9969875382973289 0.0807549491264657 21 24 13
0.8377247710012871 0.2984583316932716 1.0022424300316910 30 23 30
0.8620743506895800 0.2138098024390695 1.0010195288661519 19 69 68
0.4352813361456127 -0.9963870124087579 0.4796494395243718 16 11 67
0.7861411824722759 0.2107917582326669 1.0007227090046227 39 63 65
0.4846195437704074 -1.0007659563407831 -0.6381367953163699 70 13 64
-0.7902832553315099 -0.9942798276287370 0.0681382449375357 57 57 59
-0.1370330790449680 -1.0018212384982750 -0.7293900997470187 17 12 68
0.8604590636108617 -1.0088929851003079 0.6527658115932119 66 53 36
0.1415166075865893 -1.0019420203458846 -0.7653592589215815 57 56 54
-0.7608510035475324 -1.0014220408218084 0.6367801441084117 55 55 55
0.5494750508023970 -0.9995117999061038 -0.5823586189584318 77 12 10
0.3036391067801786 -0.9992578484172598 0.5595719833905326 19 12 66
-0.1249983788919277 0.0706063334650359 1.0031041539534773 180 14 18
0.7163095040980103 -0.9950874477587511 -0.6071146617595750 7 21 21
0.9845653874016629 -0.6601362893470327 -0.9109468025829836 8 22 22
-0.8583506108581859 -0.0624195226205745 0.9995404731824552 54 16 191
-0.5712814105795984 -1.0058421434670572 -0.0238690376545873 73 11 12
0.8975983262107931 -0.0678668919243003 1.0021864493257715 33 14 70
-0.7659511249888656 -0.0839319866169925 1.0012880933143278 161 165 164
-0.8345343608985053 -0.1148306299519620 1.0014574851525935 168 167 172
0.5599497600757249 -0.1364340214465792 1.0020741254055250 153 145 143
0.0287110280125523 -0.4981430415852180 1.0028122375121136 174 150 24
0.0986113480309289 -1.0036972441018244 -0.0816941202387042 12 24 24
0.2042425087849598 -1.0133690555366250 -1.0012109865640668 71 71 71
0.4912451454534883 -0.4050034641907294 1.0040528054230506 160 24 150
-0.0377976113533351 -0.4523400175028709 0.9990444471746621 30 46 124
-0.5962671684146441 0.7656737772556957 1.0023124598853934 184 18 22
-0.0377976113533351 -0.4523400175028709 0.9990444471746621 30 46 124
-0.5962671684146441 0.7656737772556957 1.0023124598853934 184 18 22
0.9791664071961332 -0.4744171188733455 1.0027534332184109 141 143 138
-0.6452491643615861 -1.0020277027588527 0.3161948983271509 71 74 67
0.7603683093189083 0.6955155925802208 1.0016030892199681 49 35 123
0.6449864011972642 -0.4801964200993979 1.0011130694877977 148 25 28
0.5057075758385862 -1.0101339772632800 -0.1018878204935954 70 72 67
0.9275151706187826 -0.2072043716426330 1.0012325312132289 163 153 94
0.7862622576006154 -0.2137181984228773 1.0020349313488859 151 144 125
-0.5266532409029754 -0.9981461053198900 0.2692167568553882 74 10 10
0.7862622576006154 -0.2137181984228773 1.0020349313488859 151 144 125
-0.7486906875315746 -0.2900644212601310 1.0025818828572166 182 18 19
0.9523637162103553 -0.3152346507993918 1.0011341851778870 143 143 143
0.7241118684462038 -0.5650380838492620 1.0037585984251167 38 17 172
-0.1999135721290943 -1.0056622817292171 0.2330172275959192 57 57 59
0.6322974870871023 -0.3705065035214697 1.0009373291634613 166 16 17
-0.2761443917261975 -0.5672962337599476 1.0000798073045998 157 23 30
0.4921314761217729 -0.4761116680561459 1.0018620436011685 99 157 96
0.4815269880857682 -1.0085536643608635 -0.2936271900106737 13 72 70
-0.4201260610528318 -1.0009036381573282 0.1747515619871835 15 9 73
-0.1816265947237063 -0.6616083456366560 0.9996952792891362 103 49 124
-0.1816265947237063 -0.6616083456366560 0.9996952792891362 103 49 124
0.6876543593384916 -0.7669634182315882 1.0004222842586605 15 63 63
-0.3855880771522805 -0.9502094602862753 1.0008660480048230 146 165 145
-0.4041093460066059 -0.8570207147099623 1.0105928793423102 181 11 38
0.5686018664797816 -0.9965101228554045 0.9085784715226357 57 55 58
0.5686018664797816 -0.9965101228554045 0.9085784715226357 57 55 58
-0.3773638923061431 -0.9956846592707127 0.8670351709526990 13 71 73
0.0092706017383714 -1.0032189245526346 0.8220189811442183 56 56 56
-0.2192345843420889 -0.9978691863110782 0.7935327034945530 14 22 9
0.5640771495844213 -1.0007437231212588 0.1123527328078951 20 21 13
-0.0224259670483561 -0.9998643174855352 -0.4755957128308350 75 10 16
-0.6620928555405814 -1.0033151060070788 -0.5486768504707541 17 11 73
-0.6620928555405814 -1.0033151060070788 -0.5486768504707541 17 11 73
0.8135755535513286 -1.0091765394392760 -0.5999920006106533 75 11 11
-0.7947313321024785 -0.9969461482111946 0.7112905510346030 55 56 58
0.7470021550425677 -0.9975167321827975 0.6804301949923762 70 73 64
0.4794360928909445 -0.9963316324438306 0.6609051248861250 55 55 57
0.7497807103885145 -0.9889808991883233 0.6266470372640246 73 12 11
0.6822394567396874 -0.9937846453998849 0.6184628997355486 9 73 73
0.5300472380628684 -1.0034679268936710 0.4795040062513774 57 56 54
0.5300472380628684 -1.0034679268936710 0.4795040062513774 57 56 54
0.5478967867030923 -1.0052093735226393 0.7599258958867601 8 74 73
0.7698120816278395 -0.8047672225027306 0.9982010575455746 40 18 165
-0.2241157280325325 -1.0027641276793271 -0.2728531812644496 50 10 36
-0.8077215753919933 -0.9909503484398787 0.6535508158528576 18 21 10
-0.4168155645232245 -0.9946726600673166 0.9786940309370865 70 11 67
0.6835481156813149 -0.9956499773441743 0.9731414705953783 17 12 68
-0.4412240079380406 -0.9988768767286328 0.9183880650837891 55 57 56
-0.0231082407953551 -1.0071528216119854 0.9030062675314132 56 56 56
0.2307765686548731 -1.0035348069650443 0.5093525498818203 16 12 73
0.4344983771695113 -1.0095289641861132 -0.5451787757225790 73 10 18
0.4344983771695113 -1.0095289641861132 -0.5451787757225790 73 10 18
-0.8319562415553575 0.4294943071121843 0.9960840697904408 187 19 19
0.1374134381300454 -1.0015675077262953 0.6350809967646160 19 22 11
0.2998961265406905 -1.0189445402990591 -1.0071511658172143 71 71 71
0.1374134381300454 -1.0015675077262953 0.6350809967646160 19 22 11
-0.4754221694015518 -0.9993905655512431 0.2616147257142188 67 67 67
-0.5805822181467670 -1.0044386610334866 0.1055918316129772 14 12 59
-0.5504053438859211 -0.5138599706593393 1.0018873884524071 160 163 146
-0.7917625931340435 -0.6061781455774681 1.0013184757680056 185 17 174
0.0360781092359561 -0.9972860313411461 -0.9619245210119025 17 11 75
0.8692264008877554 -1.0010626144463952 -0.1903916124108682 19 18 36
-0.2429060728047473 -0.9971620807276204 -0.3684850924591815 55 57 54
0.2070981161269630 -1.0031364908024454 -0.4803760785971526 15 13 63
0.4008957702004908 -0.9945896854465843 0.6435874465818393 16 13 70
0.4008957702004908 -0.9945896854465843 0.6435874465818393 16 13 70
-0.4290778633722180 -0.7274964768359138 1.0014319033298591 181 153 27
0.9349665572603826 -0.9858162078041213 -0.3858042117120411 25 19 65
-1.0117750537611983 0.8806641592283980 -0.3417066683935089 70 12 11
-1.3389036887661165 0.2501473413030005 -0.3938763133409128 62 68 58
0.9992801624163695 0.9208402841531238 0.4934861688041920 49 49 51
0.9992801624163695 0.9208402841531238 0.4934861688041920 49 49 51
0.9998082280771091 -0.9065752348225150 0.3962567692053108 32 44 34
-0.8929395404610188 -0.0576696445523786 1.0012713554711534 134 132 154
-0.6830697365954677 0.0358821330606351 1.0018711042020041 57 67 154
0.9995396631131033 0.9706033679879609 -0.7808262285900059 55 54 60
0.9984151694374347 0.6924076802265711 0.5411340799719223 12 45 14
0.6090564001173927 -0.6019524909536768 -1.1416215971726407 35 29 29
0.9969202339604909 -0.9823105775125682 -0.6593016370380528 56 52 51
1.0032991672448504 -0.8155852437610488 1.0014677489771202 32 29 38
0.2638561752572608 -0.9232248217302971 1.0009087680454547 73 103 91
1.0024613620717577 -0.0353740800012016 0.5984716668436255 40 53 46
-0.8648190798389922 -0.6410663348929024 1.0002716736618018 166 89 159
0.9993996379778052 -0.3492375848954601 0.3299522100732156 35 26 29
0.9993996379778052 -0.3492375848954601 0.3299522100732156 35 26 29
1.0002644239738339 0.4551870813901567 -0.5964418398362689 45 35 25
-0.8251228081715449 0.7950354498906931 1.0014748013063748 192 147 54
1.0012444820202095 0.1021312690169051 0.3502816886526715 37 23 38
0.9965089029939201 0.6151806720320530 1.0015157242039856 137 147 123
-0.2656834556144205 -0.3331939207826163 0.9998402519044798 174 171 178
0.4941343547876422 -0.9078564035257534 1.0009584590796370 94 137 84
-0.4667817056436074 -0.0031695115491892 1.0011684563817940 162 171 176
1.0005764599186353 -0.3580830000106419 0.8877517053838133 22 27 33
-0.9981530097949675 -0.9909535819148196 0.9957049710627079 139 142 175
0.9995543594598307 0.3611285705497309 0.5242209504994827 31 37 35
1.0028677879349361 0.5497112764120141 -0.7581680132768447 51 27 51
-0.4246380761064787 -0.6219292954554070 1.0019288250880778 142 167 110
0.5058231503480343 0.0161868900010278 1.0012488177810244 45 36 37
1.0015443857306763 -0.6124364280643891 0.3085005824955459 55 55 57
1.0024826006667584 -0.8260350828564950 0.4153831238849590 60 51 44
-0.5366490825450573 0.2762052853300569 0.9997829001616922 173 34 31
-0.7808978652110795 0.0519510494154417 1.0014144147538928 173 111 126
-0.8065939113617177 0.0331464483426847 1.0018172332806161 182 153 157
0.4013488775787064 0.8189366039329908 1.0014150284100727 121 102 166
0.6315706914907412 0.7332031436551130 1.0018010974418063 161 56 50
0.6289010626139285 0.7336668383328493 1.0015629210229751 161 56 50
0.9986375506773664 0.1488631200397631 -0.2280192891502349 59 69 68
0.9999942983654964 -0.2317862296586374 -0.1778481787650697 34 28 32
-0.6124856408691799 -0.6250092425443473 1.0012089030960269 68 87 59
0.9987740177832529 0.1426142655118053 0.9967967750650657 27 31 40
-0.5743954563839038 -0.6448696591021520 1.0020057558302939 182 94 80
0.9980679208211649 0.1263650273266755 -0.2587550761822203 67 61 39
0.9997026284372708 -0.1298695707563188 -0.4229439867441978 33 28 60
0.2457795754493556 -0.4840172364778051 1.0016334621970742 137 116 123
1.0020336724736643 -0.6796448464775713 -0.0891004923041559 28 30 25
1.0002372228257317 0.9390781507569941 -0.3178402990513921 53 53 55
1.0022534827687990 0.7653531053788600 -0.8531468658790432 71 53 13
0.5972074712900903 0.5314412989714323 1.0007846183415110 115 162 84
1.0022534827687990 0.7653531053788600 -0.8531468658790432 71 53 13
0.8055019027022493 0.6239401536416689 1.0018659107288206 151 151 149
0.9993767128741211 0.5398155407649808 0.2801252912902916 62 35 42
0.4564600032106661 -0.4330120050870309 1.0015399579345678 164 166 187
-0.2605569736308407 -0.2204404971080727 1.0014786550231922 159 19 180
0.9993361711605724 -0.6829333952648117 0.0821416736421977 31 45 32
0.9992338051912107 -0.5764174714560031 0.0125205359964124 25 43 29
0.9042156215270951 0.4677326748608543 1.0025447158152347 121 16 100
0.9979629355161518 -0.6955643535474314 -0.0864512989371454 53 54 56
1.0000535819024061 0.5214461554451336 -0.8515194976862502 53 52 57
0.1276233307244759 -0.1554510558070224 1.0010692303721556 156 147 148
0.9983440664861741 0.1389381699396268 -0.6395019918416657 55 55 53
0.9998001533471750 0.4919577494760207 -0.8715082192631297 32 25 32
0.9349749694887093 0.1359556719341771 1.0013392081642190 59 53 57
1.0004143090096282 0.1596017466744465 0.3691403728577183 32 30 52
-0.3843405470240204 -0.9071855940698647 1.0011106373931349 99 162 73
0.9990546714580598 0.1324151685501589 0.9852110144571919 52 51 57
-0.4164602905942866 -0.9579883089259471 1.0005615452387036 159 45 35
0.9988945415750516 0.9239280593142137 0.6374747741324538 59 49 58
0.1419425081279124 -0.1469516472548418 1.0012132974339509 153 144 147
0.9989648224000186 0.4952702061917993 -0.9735439899822654 72 49 15
0.9998988847409274 -0.6565591558030458 0.0037208598415569 30 54 18
0.9987111055063348 -0.3492962231025635 -0.1893766799704937 42 46 32
-0.4319437124483176 -0.8116398094708027 1.0014012186229493 47 176 14
1.0001407010044061 0.4373391977195154 -0.9734949878077803 76 41 22
0.0213293831014710 -0.6866629240532799 1.0029141586995427 127 143 143
1.0009432170573342 0.4541199993068974 -0.9880755977473464 23 27 4
1.0010288450243552 -0.2191833131127063 -0.5631327035379571 43 29 16
0.9998300603631384 0.3780754654725919 -0.9770383063902565 77 63 54
0.9979885190546536 -0.7720257647971182 0.0222314649219182 59 57 18
0.9999892823960002 -0.8114911953541584 0.7689438520257738 49 17 41
0.5946808282231570 -0.3326278404491518 1.0009362556736769 192 170 183
0.9994635447538449 -0.8992227536715597 0.0335767429996166 28 39 5
0.9994361077499979 -0.0839593569183346 0.2676186149812932 37 12 31
0.9993841458547706 -0.2194875729776401 0.3080699210551762 38 34 49
0.9998508085507082 -0.9505337079238015 0.0320175651209183 32 54 5
0.9989856133259144 0.0324087350136116 -0.9884836345206094 62 14 14
0.9969714393627847 -0.1680328219427323 -0.5474481324188920 59 17 63
1.0015290090025368 -0.4122018700900145 0.3786900655687356 29 29 21
1.0015290090025368 -0.4122018700900145 0.3786900655687356 29 29 21
0.9997645323561456 -0.8332785755465615 0.5670363943354163 62 30 54
0.9993632851140868 0.6474128091278131 0.5076459103145901 53 50 43
1.0005460644004889 -0.5335428986530657 -0.7527971026047209 27 27 51
0.9995830784196615 -0.8342396625271528 -0.2426831364892705 51 50 56
1.0006307112279418 0.8493719870985319 -0.4643827951618241 49 57 42
0.9994562147300328 -0.5366134459162000 0.3084917730594887 35 26 29
0.9983886671246166 0.5565584952275258 -0.3054313287490119 16 49 66
0.9983886671246166 0.5565584952275258 -0.3054313287490119 16 49 66
0.9973373625631730 0.4868980649192796 0.4770915269875055 20 19 25
0.9973373625631730 0.4868980649192796 0.4770915269875055 20 19 25
1.0012086798643387 -0.2792713912550147 0.1181468208684689 50 54 53
0.9995586296078455 0.0631613843826875 0.6118813541386453 30 11 33
1.0006970063264200 -0.0824972413500873 -0.9629624677046534 51 56 52
0.9985148283399379 -0.0605454753282924 0.6274920427500663 61 57 19
0.9988859423759717 0.8687658264367356 0.1225570026573538 56 52 53
0.9988859423759717 0.8687658264367356 0.1225570026573538 56 52 53
1.0016113656249830 -0.1071542020223304 0.5549738007532439 17 22 28
1.0020638000803215 -0.9039453281484450 0.9199433351750186 25 52 9
1.0008284268154422 0.4545569793457548 0.2365594754981618 23 28 21
0.9987064485017464 -0.3908417056540426 -0.9245611862470979 69 69 57
0.9991385313714630 -0.5649983843489463 -0.9877331681008342 25 8 62
1.0000251943870115 -0.8663085316416065 -0.8549785308228892 29 50 7
-0.6473715264186155 -0.2538368740472674 1.0019310790197054 164 164 156
-0.8386089616372916 0.7407242152958513 1.0008181654781394 159 159 169
0.9986917194382607 0.5985872542067739 0.2547946470056057 54 56 53
0.5962654113416234 0.4728451315287471 1.0014752550761474 92 24 21
0.9890528718179333 0.9979137260410750 0.4608446207764973 76 11 19
0.7350613980088626 0.3640083173958464 1.0009053248775022 74 56 16
-0.5145346563402078 -0.6628223959730046 0.9988280926936030 100 185 92
0.9998202360566875 -0.8434528920727866 0.0314085701863235 7 25 13
0.9998202360566875 -0.8434528920727866 0.0314085701863235 7 25 13
0.7646154683035062 1.0033996419152609 0.9999571219515161 57 21 23
-0.7532134895586859 -0.1242804205328388 1.0000317364959126 17 77 78
1.0002505885224626 0.4494777283244107 -0.3319672578472138 74 9 65
-0.8086134837869675 -0.9446901450687821 1.0025906707701870 78 189 61
0.9953936022056081 -0.6361466649973825 0.5213659501898420 55 55 55
0.9996659024034109 -0.2602652779657919 0.4792631533404302 47 61 46
-0.7167955410436043 -0.4964179106099016 1.0012432709408543 169 150 154
-0.2425684239224198 -0.2341013749746992 1.0005853486584511 133 122 190
-0.5964486561853971 -0.6515794234551364 1.0010598176152330 168 169 16
1.0024663463471739 -0.1851392235418916 -0.6105552318108334 65 13 62
0.9996006279797368 -0.6891964622714722 -0.2890943130869735 63 12 53
1.0020861014139633 0.6276086202723257 -0.2692565609978467 46 54 56
0.9984687460448737 0.4009620067737093 0.6785194097365865 72 55 11
0.9988686688638357 -0.6683705486724263 0.4328274519893494 23 21 34
1.0017586387903579 -0.5225062328067375 -0.5611803646942032 18 20 6
1.0006598572287886 -0.6498599791041061 0.4021933388115244 17 15 26
1.0006598572287886 -0.6498599791041061 0.4021933388115244 17 15 26
0.9995632377942484 -0.8268032871307206 0.4766063771307846 30 15 18
0.9990554852462632 -0.7498011267582839 0.4643539646067996 15 25 26
0.9996563121286411 -0.8391779978746262 0.4519753966641094 62 55 37
0.9983769224799055 0.7693847392282667 0.7216397920297205 48 51 60
0.9992161744511217 -0.6518219550788960 -0.8536047098657754 73 55 7
-0.4705429970212081 -0.8703609664072681 1.0003029887991475 185 79 79
0.9992161744511217 -0.6518219550788960 -0.8536047098657754 73 55 7
1.0015564342416634 0.0828364472111345 -0.4821833906827356 14 9 75
1.0005024700833030 0.6187037636664050 0.5673481372706904 7 21 21
1.0002656034686288 0.5738579713253102 -0.7095089816428410 54 54 52
1.0036504966236965 -0.5175376417292961 0.0689466833540550 50 54 53
0.9979086883762056 0.2141602309859351 -0.4968510825279181 69 72 63
0.9995711559623016 -0.6394703289200128 0.0161485307382665 61 70 65
1.0015935240297607 0.8265822482345089 0.4673279094813054 71 11 11
0.9990215125209779 0.3316654903711928 0.6364657912006041 53 51 62
0.9990215125209779 0.3316654903711928 0.6364657912006041 53 51 62
0.9976787552359643 0.8907846665047232 0.3435729942501867 7 22 19
1.0004310372753733 0.4575255690503496 0.4321451052146355 7 22 19
0.9983679131870227 -0.2595974804779818 -0.2991958522261421 18 20 9
1.0005422423460615 0.4987398510246111 -0.8670782530702273 32 25 32
0.9979348255801591 -0.4247692063955036 -0.9601405285935305 54 56 55
0.9992015063432748 0.1946322640718749 -0.7013529314901389 74 56 10
0.9988835320330448 -0.2395802345755473 -0.4354299319973031 52 58 44
-0.5116968278721375 -0.2800855592606926 1.0016998373262616 188 12 22
0.9993029574461807 -0.2155506831489966 -0.4695402653671016 73 9 9
0.5122383373775987 0.4186217354374383 0.9997968321017570 18 14 75
0.9977753785627068 0.9156894087626406 0.2635328720718290 55 57 54
1.0003559707826362 0.7517812712134662 0.5491272738885606 10 21 23
0.9971501559177240 0.4986640935177172 0.4405913595332902 76 55 10
0.9973795377205367 -0.6041140602061403 0.9463385776704419 68 73 66
0.9893430646625518 -0.7395065282256614 1.0007077280760268 140 140 138
-0.6084212014072576 -0.7224360820802124 1.0015271510643065 181 83 72
0.9989702645890687 -0.4800062039198824 -0.3737307582830165 8 22 22
-0.5467214998130615 -0.7086248825066286 1.0010057251580646 184 14 14
1.0000628627474091 -0.5724400835687996 0.8843504394092687 70 73 66
-0.4882107438823162 -0.6999674488151250 1.0001918782634798 182 16 20
0.5783587124750726 0.8112720550714237 1.0012587524041741 150 150 152
0.0026501640185459 -0.6644695277842503 1.0015645351724312 25 68 74
-0.6845466005121610 -0.2632486248280601 1.0019252996436614 192 106 105
0.9993344497316927 -0.4403438263176556 0.9399315340532274 55 55 53
1.0049073010840683 0.6323304299675272 0.4057886856778015 10 23 14
1.0008542826282947 -0.1329459123520216 0.6539336182896398 13 69 68
0.9981115932102288 -0.9568197829698655 0.9640749256210351 69 70 64
0.9983191432229946 -0.2431287003389392 -0.7490209865549504 76 7 10
1.0003091644803901 0.7653963148609093 -0.0103193603079596 13 72 8
1.0019771683754155 -0.5171770225661905 0.5143580288177827 56 56 56
1.0029736814523251 -0.4745450388343203 -0.7774670967307256 56 57 51
1.0037142566557682 -0.4735546132185412 -0.7758041069961668 56 57 51
0.9992134102431908 -0.4199310329682314 -0.9290801829072828 18 20 6
1.0037301265425127 0.4494032010460195 0.6606391854699197 13 8 74
0.9941662198504292 0.4045264582013063 0.7686304893825231 72 56 7
0.9972486715603551 0.2255090143740515 0.2856325463511808 11 72 73
0.6473295570784531 -0.7436637469503484 1.0006771795259679 173 175 172
0.9994837967676649 -0.2734816809548661 0.1447120769244049 8 20 20
0.9970431500147726 -0.5167528680157741 0.5632389101893785 69 11 61
1.0126743933960967 -0.5383825573855785 -0.9975393074361889 71 71 69
0.9989735634292818 -0.3416504205281722 0.1298734932857966 7 22 19
0.8114650372514716 -0.8251869440987998 1.0003730150984713 171 173 172
0.9967335770599435 0.0127593800131644 0.6652681189902458 55 55 55
0.9915458108419494 -0.0381928550665753 -0.0868146205690804 74 8 69
0.9984659104524856 -0.0118942620451129 -0.2187055115277661 73 8 64
-0.7569843160428310 0.1160497345582624 1.0025679297911008 176 111 131
0.3245851446912447 0.8960103889246952 0.9993368237619076 171 17 19
-0.7834252679744482 -0.0164245088372412 0.9993243201525874 51 15 183
0.5688326976248527 0.6024902351301258 0.9967607786909439 66 11 164
0.9947732205850560 0.7470203262579996 -0.7625181292116143 65 55 30
1.0003568126211653 -0.3287833261577573 -0.1906222895151705 16 72 7
0.9980573472008604 -0.7891234256608322 0.0702943077934943 72 53 20
-0.4695868298478393 -0.5245505607015035 1.0027687719301419 83 50 97
-0.1850054556107544 -0.1306387320482063 1.0033546629367585 179 18 156
0.9946038984472514 -0.0824817758536070 0.4258057385918561 18 21 10
0.9981030745445078 -0.1013039872769013 -0.4943932401390156 54 56 55
1.0068379725072054 0.2723127957864783 0.1677537809961175 75 7 64
1.0041375058782316 0.4835974135580727 -0.0096616469891823 10 16 40
0.9974389949902094 -0.1217374724321176 -0.5351903666432145 17 20 9
-0.2373482447096499 -0.4924486662913737 1.0005110652314233 136 41 45
-0.5325894891149644 -0.8912945153421106 1.0016254045378872 176 20 21
1.0099972163230211 1.0074635986984488 -0.4149651015637445 71 71 71
0.3014501311067290 -0.4004374262896314 1.0069978337940484 191 177 138
-0.1160490752703910 -0.7245447302880532 1.0018217653459640 156 173 165
0.9935124963245028 0.5462311280760535 -0.9772368682813334 46 15 13
1.0038020782863557 -0.0567721364773596 -0.6181704717091864 18 22 8
1.0044457506592173 -0.8364522322206623 -0.1264310445329818 16 22 8
0.9927663275138248 0.9662986144920608 -0.0212763977900215 10 20 22
1.0041206857316232 0.1121863996211853 0.3761886630573565 8 72 72
0.9983935123508532 0.9291213070847428 -0.1445929247825142 62 10 14
0.9967180120671753 -0.4505388937984545 -0.6188701653255909 73 55 9
1.0039760924534347 -0.3761398758175503 -0.4062138188835357 15 9 71
1.0155390585400446 -0.7928005193372154 -0.3358020934995985 10 21 17
1.0006207806120544 -0.5025919092815175 -0.8952222764788675 68 55 21
1.0102240219376581 -0.5489194968795524 -0.9327813208459169 17 16 34
1.0053652184732114 -0.5425870531699299 -0.5968584667006401 18 21 10
1.0019196015002731 0.3683496194430054 0.8598797950365850 35 25 26
-0.2585186416017580 -0.9965204269497593 1.0012483192870802 128 131 138
1.0095496810852631 0.3690597425386842 -0.9793204456976825 66 59 17
0.2926717755110484 0.6829438070151964 1.0010800557561428 166 102 137
0.9993464543154952 0.7229655844449558 0.6577642790169227 34 28 40
0.6618630114568631 0.6610197660865121 1.0013071507787616 67 46 147
-0.5462246642153266 0.9657740461234787 1.0012458351683120 112 104 58
-0.8804549723032133 -0.5897321143586418 1.0015651668964918 146 133 140
-0.5495256432337140 0.0585936646556428 1.0012193664817528 162 79 89
0.6617785753029040 0.0820143203019639 1.0012991207959199 34 29 33
-0.5502848598090478 -0.7874139565972370 1.0020466575497005 180 148 35
-0.5514622965922721 -0.7863161186532990 1.0014373835257511 168 150 126
-0.8635501147315942 0.0031975798353447 1.0017945997042730 146 144 168
0.1674600442773236 0.9473603723148070 1.0087883110578681 83 161 16
0.3555181085938890 -1.0451289468441913 0.1630733421528291 21 57 57
0.9999145706452682 0.9015966240378260 0.3722785919420807 31 31 43
1.0034262588520304 -0.5227305972351198 0.5492307468933046 58 44 59
-0.7812070712889333 -0.7000583401348737 0.9997737616985631 138 176 127
-0.2036965188465855 0.9302351005177469 1.0015725485241971 154 76 89
0.7630671967451971 1.0101287567251425 0.3983528584860557 40 63 35
-0.5861816464658111 -0.9804189762344588 1.0020670696801315 118 109 110
0.1515662151622998 -0.2540505202288015 1.0012381602492777 158 148 149
0.1339249658026176 0.9981629266140771 0.9979453742504376 81 150 157
0.9977694970213704 0.7242754033784358 0.0639540585719930 54 56 51
1.0029579664365922 0.7024156457640618 -0.4880945417218475 57 53 54
0.9997988163893583 0.7215969233248348 -0.5202225345643633 49 41 22
0.2128938450447016 -0.9515803632892903 1.0009174318355860 55 84 102
1.0000458963681507 -0.1308024134943102 -0.4244233939559440 33 28 60
0.2139974241188599 -0.9518170802219778 0.9995198392193083 55 84 102
0.2863672273012977 -0.8081546568507342 1.0014075984750792 139 138 152
0.3660529432563469 -0.8543403861602006 1.0008021301265679 20 105 170
0.9988116391405392 -0.6886427939026983 -0.0985587272588216 29 27 32
0.9987568820754026 0.2978380351208647 -0.3574941907991048 37 42 35
1.0001222345720553 0.5226127569375278 -0.8224661774107676 20 19 24
1.0009363433118388 0.8809898760317996 -0.3466904871988123 29 61 60
0.9997782560578446 0.4823640551364222 -0.3304555467757188 52 67 72
1.0004637665001204 -0.2053639701851740 -0.2581688955752892 71 10 54
1.0003008078029862 0.8356987304889120 -0.3833014133405302 35 38 21
0.9996450894846395 0.0941607137894712 0.6719027114991915 44 9 63
0.9992394201739788 0.9618502847285489 -0.4284416897973023 47 59 57
-0.4696513099376839 -0.8967859472526791 0.9997126695751571 177 77 75
-0.4143401986079457 -0.8955589056930047 1.0021207829601642 181 78 82
1.0010407815224487 -0.9428262640040018 -0.0469496653913596 24 55 40
1.0020004086858303 0.4969410371751263 0.0728834872731603 55 54 52
0.2615138626295016 1.0006494409415316 0.0426948866891937 73 74 66
0.9999063356722798 0.6971173146693345 -0.0336241827462210 73 57 8
-0.5272621681359363 -0.9660921960716707 1.0039050773553955 153 152 132
0.2903240787927920 0.9251586293942738 1.0004520921171456 143 163 136
0.9993401343535614 0.1722459614959110 0.5710970852357791 54 51 60
0.9994590901995016 0.2030399968537438 0.5554345485432636 25 29 41
-0.3852172917048055 -0.9662113334064560 1.0036770035248928 162 162 162
0.3677916618901225 0.9148403754615634 1.0010919517824906 156 156 156
1.0052081746166122 0.7884622171502746 0.4673854682345858 35 29 31
1.0052081746166122 0.7884622171502746 0.4673854682345858 35 29 31
0.7127822643162507 0.6855655498853266 1.0031399333132816 173 174 166
1.0005638351111608 0.0554623418892811 0.5962672463932321 53 22 38
1.0009779351755732 -0.1579777174716140 -0.4224313247081728 56 48 61
1.0016007659250905 -0.7200636522068220 0.6591394620670469 54 54 56
0.1626334504329484 -0.1123830470451762 1.0016701009190474 174 177 184
0.8769951706877227 0.8985225538631965 0.9983521146911296 150 147 154
0.7996110587648406 0.6431780814653107 1.0041046094801089 153 154 149
0.1355879088880416 -0.5395105882497853 1.0036484178078282 136 187 131
1.0012609620597932 0.3477328335211448 0.3738806797750789 54 50 49
1.0015273918011405 -0.5010270201328417 0.5416830738434343 20 15 19
0.9983919033121280 -0.1495364627880081 -0.5501511791393994 59 46 55
0.9990859605004361 -0.4303239851268585 -0.5923152883884811 29 44 13
0.1267963964149218 -0.7473373200164071 1.0013744448252464 180 185 178
0.9977722762377239 0.4666164345063303 -0.9768173635280573 71 50 23
0.3670786559147521 -0.7722495420221127 1.0014871478880871 119 185 183
1.0011516503224034 0.4212028677840364 -0.9878574403965883 73 9 61
0.9937462045949129 0.8983214270283393 -0.1468240107419462 6 22 21
0.7821478077252293 0.2634152836135615 1.0021437913253020 25 24 22
1.0000896041804082 0.4439689966187896 -0.0888317923725569 73 11 60
1.0013014024672986 0.5669792260414649 0.9962965939181871 11 26 5
0.9997414063736841 0.3146082692523034 -0.7241220139283721 77 53 7
0.9995829421977207 0.5682551657438126 -0.8087155828378387 58 14 15
1.0040101032083040 -0.0537642470567323 -0.6923315356951292 59 19 19
0.9985852757289341 0.5437390884844785 -0.9108004679339660 49 58 57
1.0019833780070473 0.7168967255144192 0.0239644582261989 29 12 48
0.5697521561868074 -0.4728285580377869 1.0016440164479687 135 152 134
1.0004536904805579 0.1711051234876128 0.0816487016632570 29 16 23
0.4420830407377545 -0.9027833083478309 1.0043459008511213 123 173 114
1.0008228390878662 0.1789812225495401 0.0603751219532511 29 18 24
1.0007810319733843 -0.5958661670549695 -0.8349784802437530 37 22 19
0.9987938057650744 0.6156519557538382 0.9405502214505803 17 71 11
0.9975372691556450 -0.2612731658384848 -0.0698341884020174 17 17 55
0.9983362489079305 0.8384110165250810 -0.3251993676106783 71 11 11
1.0017305818154896 -0.2652611428709967 -0.9684712510878932 74 48 13
0.9886623176214731 -0.9239580527803877 1.0028861648902623 161 131 41
1.0000768738072876 -0.0499733575446039 -0.1383063557210004 11 29 43
1.0000768738072876 -0.0499733575446039 -0.1383063557210004 11 29 43
-0.3749291459007923 0.1860182989578813 0.2396015729984755 31 30 36
-0.3578599319447564 -0.0962202105875212 1.0021568248417263 128 117 195
0.9967673994905106 0.7761123363914793 -0.5006288490694895 56 56 54
1.0025746202883181 0.1954899791555106 0.5399519493301191 55 53 56
1.0005497486254491 -0.6824446409699156 -0.2432733314919395 26 9 64
1.0003224392627050 -0.9613638547129622 0.5469518445902259 20 28 13
1.0003224392627050 -0.9613638547129622 0.5469518445902259 20 28 13
1.0002422588771598 0.8222512839739663 -0.9161050839187399 21 8 61
0.9991860081859317 0.8893320292306355 0.6975176833304650 19 8 68
1.0168112153113928 0.4286913318908441 -0.9977556948254026 69 71 70
1.0008120535235505 -0.9206566160392842 -0.8451094385772155 66 71 65
1.0027887227426757 -0.9614096086529451 -0.9002479837528158 12 73 74
0.9994059001291187 0.2121306047106757 -0.0137762970745181 18 8 69
1.0022261897142306 0.7983482664541620 0.4875146111773848 56 56 56
0.9965505482937279 0.4343322813979559 0.8229640069591999 17 8 71
0.4537450192533070 -0.2190410802107186 1.0044222699161112 178 179 181
1.0046493796543667 0.3823630418178577 0.1810098453378389 67 10 16
0.9987423180008598 0.7486611960254866 0.4223309544748050 66 74 61
1.0021756714921797 -0.0004845180781583 0.5657683315728850 74 10 11
0.1460836164635492 0.9866985805184546 -0.5260055728182896 57 59 58
0.9987776930341548 -0.1406052814581396 0.5749290688852928 9 20 22
1.0036730303963339 0.1532387499340169 -0.3361916629107383 68 74 64
-0.3463936286112507 0.9735537152840311 0.9975791027164906 169 170 164
1.0006660088018966 -0.1760811025891015 -0.1402856896385638 10 71 74
-0.3842043750708092 -0.8509189381860399 1.0021425219849958 183 81 95
0.2441080258472321 0.8221688490201358 0.9986960300768152 181 58 61
0.3283387761355238 0.8384265644530444 1.0008665437041036 154 152 157
0.5152352599326817 0.7998494753172504 1.0013787249269084 62 86 86
0.9976134240041089 0.5278518210392296 -0.6722008551052923 54 56 55
-0.1429875110219790 0.9796271246212286 -0.8429587909041925 10 71 74
0.9984778891411379 0.6711620859796056 0.3354213123358739 74 9 15
0.1250744598271726 -0.9387110928318941 1.0022867592594227 164 162 165
-0.1681233473453765 -0.8676076491032779 1.0006902075003126 105 90 181
1.0023404397706890 -0.4278349107348152 0.1207403527039353 9 21 21
1.0050280247969869 -0.7205261992997787 0.4603223842294429 56 56 54
0.8849503066144773 0.6954360347489332 1.0033593301243788 156 17 38
-0.4805077114061781 0.9568309318368771 0.2380551464060944 72 75 68
1.0005688927172804 0.2299631287387008 -0.6936186637620569 6 24 24
0.5225516812014286 -0.9268539051943171 1.0035001063028819 178 181 172
1.0041038947814598 -0.0448668235098325 0.1660687537642933 55 57 56
1.0084018409112709 -0.7125264963379794 -0.7817467059724315 56 56 56
1.0020408688748554 0.5593207645093419 0.8571293420035185 55 56 51
0.9972711527493155 -0.8768627179377816 -0.8570705247603232 15 71 10
0.9953478794610409 -0.5070630459664026 -0.3352081564848723 70 72 67
0.9983894931821444 -0.1402750627590737 0.6171521246572391 9 21 21
1.0003934189489476 -0.2968530238903715 -0.7239755505494799 12 73 6
-0.5294532704473868 -0.7733977754322356 1.0011365549106588 186 82 81
-0.0565624183328564 -0.8035177440494934 1.0013646710917816 106 97 186
0.9946861739288009 0.6516206708709557 -0.2355284804877295 14 9 73
0.9946861739288009 0.6516206708709557 -0.2355284804877295 14 9 73
1.0139496403383503 -0.3643297247296694 0.5443770474195746 8 72 72
1.0020419867323769 0.3400661486055052 0.7295000315719425 11 15 44
0.6224747539754649 -0.1127397674028341 1.0010393262444157 108 93 90
-0.6130812032971882 -0.6264805332808595 1.0017769468378728 53 73 64
-0.4186742781237267 -0.6014303517035566 1.0024997205831572 162 154 107
-0.4684003854902618 -0.9158496528811393 1.0038599092166864 126 143 31
0.8266537267777944 0.9979533582171891 0.9562958221106047 64 56 33
-0.4802720199081881 -0.8500008222775569 1.0016315720921420 77 167 18
-0.3757072957228129 -0.7910115309202064 1.0021887439517856 135 127 28
-0.4079355170973768 -0.5647938863355533 0.9981421674741819 99 101 116
-0.3745442852707160 0.6320120519062641 1.0009640538372289 106 84 96
-0.3745442852707160 0.6320120519062641 1.0009640538372289 106 84 96
-0.6365792109449390 0.3906221709123061 1.0013305845900038 147 135 135
-0.3674133835639741 0.6204822953646936 1.0015290252426123 163 161 162
1.0054252037564861 -0.8092292649421859 1.0004797134902033 67 67 69
0.5887278945220941 -0.6604481076537753 1.0015362905870400 77 127 90
1.0066203847698167 -0.4455213766728551 0.9239017127646464 27 27 35
0.7627454286022262 -0.3003277212273905 1.0012610342313784 158 40 163
-0.6581708621268565 -0.7645583963191523 1.0001314340497534 172 161 71
-0.4310742819672977 -0.8156690510441610 1.0010525870362750 45 182 16
-0.8251228081715449 0.7950354498906931 1.0014748013063748 200 151 95
-0.8503087955932147 1.0000065101216609 -0.9744362476930801 69 27 37
-0.0067790328930528 -0.9762397696528026 1.0024540019472006 112 111 127
0.0637666921250223 -0.9670219957418480 1.0009026169777222 109 107 120
0.0941643653832857 -0.7439037290593360 1.0017462921253968 36 112 50
0.3962363230739179 -0.8377570394064578 1.0011834128936177 60 164 155
0.1061789311845774 0.9949284035404785 1.0025977073705599 162 157 151
0.4941464854682130 -0.6496042637168201 1.0012087081378389 44 173 10
-0.8553469539243538 0.3443587535246784 0.9988177995473518 194 184 174
-0.5583478272453972 0.7602955209796309 1.0014579695539882 171 168 161
0.1628340215053622 0.9559391093285883 1.0018238851706520 155 35 8
0.7327828318153345 -0.6751700086608912 1.0013145516199138 158 20 43
-0.4377544394699731 0.8535463622554911 1.0005699582328347 112 119 88
-0.9674067933669571 0.7466348369199891 1.0003689737450920 98 80 192
-0.4178182638993550 0.8718100718695980 0.9971348132321823 155 155 155
-0.7887539442380700 0.6155767246458691 1.0016004902186473 57 18 187
0.6958502161242099 -0.4117014753881088 1.0033791777830174 41 171 13
-0.8375402607152991 0.9267555716119003 1.0013332642912689 186 178 167
-0.6461453746417454 0.8625174057044606 1.0041400107972986 167 157 155
-0.1232849666870211 -0.6071271720111253 0.9987907392976061 47 118 52
0.3355609059883177 -0.4654843955439258 1.0019729160697128 112 147 93
-0.5752751403741569 0.8418366581665441 1.0004004415720509 168 157 151
-0.5701261807771345 0.8443074366978336 1.0004594287373509 178 166 166
-0.4404132246684254 0.5477562296760962 1.0023479637486641 165 149 176
0.4268536303541888 -0.4378963485330944 1.0032887677513793 76 20 153
0.0107664792811058 0.9695421310219732 1.0023622475939553 171 171 173
0.0209865807439664 -0.6856889873178731 1.0006791707109726 147 150 143
0.5485479443435495 -0.6427998080618778 1.0003325453516945 42 170 15
0.4940206869044298 -0.4226536989613356 0.9999545282361850 59 37 109
0.0765795679055867 0.9733958309003351 1.0019774351316610 57 74 20
0.6727792266157867 -0.7137682407734329 1.0015919633721690 58 68 18
0.5885782229990029 -0.4421958039183698 1.0006946579917664 43 171 12
0.1454636812016848 -0.9911426229926588 1.0019009945919717 117 159 158
-0.4396147983967253 0.9001108908576068 1.0009180979632788 171 166 163
0.5895971562199755 -0.3701572811571267 1.0008036951672248 156 29 162
0.6338360516414884 -0.3941819090732824 1.0015115445828147 169 19 18
0.2643314646316639 -0.9218900118039973 1.0012954031198453 73 103 91
0.2781336081130514 -0.8445962242042495 1.0023544086981424 18 174 163
0.3638683493983138 -0.8558276043886393 1.0013888533481545 20 105 170
-0.3791402667401471 0.9958431688625964 0.6079877125848491 12 10 75
-0.8923043066166472 0.7208258662943049 1.0022626752789792 194 77 83
-0.3601712893372299 -0.0929399672669778 1.0009995811426644 47 16 179
0.5179572665046110 0.3540850819956372 1.0014981382655268 30 62 21
0.2482272977645756 0.8559031278033056 1.0014785048966781 153 144 139
1.0029976911444398 0.8098694436778496 0.2741389845488257 32 33 53
0.7332336173676072 0.0515980453300342 1.0042943240407545 59 59 61
0.8906324164155491 -0.1474042704080677 1.0016770117494018 168 14 24
-0.4133042820347621 0.6185989770158397 1.0006285066139959 159 164 157
-0.4107499460283455 0.7747013394710290 1.0001408869252091 150 158 147
-0.3874869685918659 0.8002933854276264 1.0025291401818361 108 114 88
0.1631423193481553 -0.5627311639885128 1.0028308808815616 11 71 71
0.2486613322933935 -0.5485599648650967 0.9974716385949360 38 18 167
0.0866216678096970 -0.5846488089919528 1.0016709911179624 34 36 145
0.1523381770319464 -0.6543910135413503 0.9961458427204657 51 25 176
0.3994938471351231 -0.4297366422737440 1.0022259910519640 171 27 158
0.5207897772364107 -0.5123366452249761 1.0001283361213258 16 65 69
-0.8015957628708571 0.7710190591570059 1.0043780008088070 154 24 98
-0.5410786824395737 0.4327651709189822 1.0027549437981749 188 68 69
-0.5848610942333973 0.6330707567881145 0.9999265934778788 184 20 21
-0.5531811878931396 0.8915859058760762 1.0013216205128108 170 176 174
-0.5774378074818387 0.9816820557157031 0.9982225021012716 186 167 11
-0.5784361946232204 0.7985084713236850 1.0014764927404398 190 90 90
-0.5784361946232204 0.7985084713236850 1.0014764927404398 190 90 90
0.3316274227044368 -0.3570741651679754 0.9982379020139592 21 65 64
0.4662280841757724 -0.6951371516048327 1.0006703434989568 57 66 11
0.5200379124886134 -0.6765267329133835 1.0029207271704896 140 148 150
0.4805977658641525 -0.4915067813969261 1.0037134390148859 138 150 136
