ply
format ascii 1.0
element vertex 690
property double x
property double y
property double z
property uchar red
property uchar green
property uchar blue
end_header
1.4784562830124677 0.2671762358520197 -2.0616184481485367 44 18 19
1.2638483652263321 0.7836078777350539 -0.4863147513667906 150 19 61
1.4825278257145620 0.0788422866075194 -0.8815548729372189 36 25 29
1.4791091618410102 -0.2004771784935249 -2.0706682284914764 31 29 30
0.0251743205397960 0.5829224349574020 -0.4802584048795859 144 20 22
1.4832133023536906 -0.8557155398847540 -0.8854156410856522 57 53 54
1.4790194342990488 -0.2990591496407695 -2.0730606727560388 37 28 33
0.2146812376930527 0.8329439047486231 -0.4807446612240562 57 21 23
1.4793708230871365 -0.6608422629529738 -2.0766265493766527 32 26 30
1.2934084782846547 0.2850575041184545 -0.4847338803706851 101 98 109
1.4851277081180025 0.4829439048077159 -1.5601332007593578 52 49 60
1.3764372443811905 -0.6379884220743675 -0.4851126576855331 157 166 75
1.4801703675548639 -0.3076606038848902 -2.0750599418629569 41 51 53
0.0700582473019662 -0.0066439351942312 -0.4793879295199958 49 172 32
1.4782922461444776 -0.1872895259435612 -2.0793118940836295 32 27 33
0.2333471792523335 -0.8243383669757419 -0.4795540636303405 130 175 94
1.4805524296966861 -1.0042748461468620 -1.5716684930093012 24 13 47
1.4798720811349326 -0.2999866378479478 -2.0904240741558104 40 42 29
1.4814219225159255 -0.4243980288144715 -0.9275906988107240 53 51 56
0.2472567906250467 -0.3018877666027529 -0.4802288631807895 115 37 87
0.0684154638262095 -0.1049000614046703 -0.4789607096182631 40 175 171
1.4715589133134626 -0.1665147979271169 -2.0980573721196514 33 27 31
1.4822662160827325 0.1490288412331894 -2.2126299409165004 25 21 35
1.3934456622339577 -0.6183657171272008 -0.4850393099766287 156 158 136
0.0758018904440504 -0.4068723381958742 -0.4797248629991216 118 106 110
1.4813430541664971 -0.1831311079847488 -1.6123096302585378 38 62 36
1.4834268004682136 -0.4324092498011297 -0.9312977690754343 25 43 17
1.3632541218833412 -0.3923922731253796 -0.4920366132270473 175 23 142
1.4797129739263986 -0.5040414516608495 -1.6383569621728939 28 33 37
1.4812062006667970 -0.4261716690038500 -0.9564583413827903 29 63 28
0.1605456592715522 -0.9568015334828657 -0.4790680945988108 198 121 129
0.1674014404899738 0.7961331173275022 -0.4813022557431072 51 29 31
1.4213280036644358 0.2364736029430465 -0.4870151482361819 63 105 117
1.4807561142441907 -0.4955744320878204 -1.6547143130600634 37 24 31
0.1784858990155297 0.8674626816039355 -0.4814976771229668 39 41 38
1.4213280036644358 0.2364736029430465 -0.4870151482361819 63 105 117
1.4587713354653826 0.0578771348642607 -0.4747983779209352 163 168 162
1.4807561142441907 -0.4955744320878204 -1.6547143130600634 37 24 31
0.1879960052597689 0.7255242634617716 -0.4785807321227826 62 57 54
1.4799487335619461 0.9665513031069454 -2.3050207111168639 24 54 52
0.1887188077904754 -0.9700651839241139 -0.4790946501678318 154 80 77
1.4773811656782101 -0.9551329370417667 -0.5083918065939343 54 56 53
1.4796901932367934 0.1652353369757438 -1.6698499354342422 33 24 29
1.4783556127216728 -0.1653575530099695 -2.3422424035935361 49 48 44
1.4796912488286573 -0.1739928026163553 -2.3476163644495314 36 30 34
0.2344836890782937 0.6865857284166308 -0.4819730470581906 19 70 71
1.4792645437913230 0.0226298851111755 -2.3497915143045383 21 20 38
1.4788127055004237 -0.1478081541236865 -2.3507677187565612 64 13 12
1.4790730017390563 -0.1893841262116357 -2.3122750600311308 31 25 25
1.4658773944573646 0.4740758783652964 -0.4881038107010943 60 40 151
1.4852418117141484 -0.3384720362419661 -1.0581072201722159 62 34 59
0.2753914598649937 0.8442849839929203 -0.4817634570936720 33 49 49
0.2743044674739784 0.8881675710072484 -0.4818447857656842 72 13 19
1.4750870227340738 -0.2305730327072967 -2.3675056694194425 57 53 54
1.4807646109191079 0.2290727487259972 -2.3655463119161650 34 27 34
1.4843681878984187 1.0002910666684597 -0.5311900186516452 18 18 20
1.4772950683672894 0.7465216608940889 -2.3739872240685820 52 41 45
1.4794863328118253 -0.0497235134788422 -2.3670386174607509 32 26 36
0.3169978668237767 0.9875684582629373 -0.4795468236923140 36 24 10
0.3096322694789314 -0.2162060130997440 -0.4806117634151330 145 88 129
1.4787720285781860 -0.0497951557590089 -2.3678558496718192 32 26 36
0.3220044686890518 -0.9219627146677801 -0.4799273465575056 180 176 173
1.4783330493118911 -0.2385160052106445 -2.3717535360010435 35 31 32
1.4855847329935838 0.5018002621740483 -1.6848942780379184 31 30 38
0.3436903604505355 -0.4977342600103903 -0.4804048811973922 57 52 136
1.4774930907325572 0.7554691161886949 -2.3720213601271838 33 21 25
1.4792414909084795 -0.7852753309398488 -0.5619767872569517 34 24 23
1.4802158221993715 0.7692230780604710 -2.3776009758248233 33 24 29
1.4855847329935838 0.5018002621740483 -1.6848942780379184 31 30 38
1.4846950078478753 -0.2549691531212940 -2.3721432493061467 54 49 55
0.3287850965538959 -0.9096459310485927 -0.4802729564248083 132 125 132
0.3287850965538959 -0.9096459310485927 -0.4802729564248083 132 125 132
1.4799613101134779 -0.1730428852599945 -2.3832913734224772 36 33 40
1.4810190118474149 0.6073541408242635 -1.6938230533337539 40 59 65
1.4796722700799896 -0.1730151806873542 -2.3833066999549626 36 33 40
1.4797805746541048 0.7466163529512668 -2.3865006264033632 36 30 32
1.4805543824103879 0.7772923714542983 -2.3952608527989923 36 25 31
1.4760778485532133 0.2612335824803470 -2.3922618831117206 37 31 31
0.3398421640411686 -0.0683677038770794 -0.4815934518950888 139 146 95
1.4814405233713202 -0.7616211824138460 -1.0906144982370038 57 53 54
1.4817119181183411 0.2759684166619942 -2.3979619279288014 35 24 38
1.4779516862171596 -0.1417896874871120 -2.3950696234037454 55 40 43
1.4792177079133328 0.2863938586722092 -2.4080847953186919 32 24 37
0.3815919213183502 -0.4783190398982547 -0.4807020576333152 94 96 170
1.4798524311016463 0.5975970023094843 -1.7002399011809388 37 26 34
1.4747719095922720 -0.0456241711830131 -2.4036381801261841 33 28 35
1.4878409186208841 -0.1850028729129304 -2.4009829616177480 32 26 28
1.4783643686200332 0.2742349718590143 -2.4097925052998801 40 30 55
1.4803136240276007 -0.2825747132681664 -1.1003230528613954 48 43 47
1.4798524311016463 0.5975970023094843 -1.7002399011809388 37 26 34
1.4784777932580000 -0.1427923771321932 -2.4128083338734938 31 25 27
1.4833622475078376 -0.2748369370783032 -1.0987134546781350 36 25 31
1.4786362188702387 -0.1264652815799389 -2.4292047894679478 66 30 34
1.4870803984968353 0.8897459108297719 -0.5665205640973296 27 26 32
1.4739161134311562 -0.3388269763561418 -2.4163537622761999 60 55 59
0.4249711871811120 -0.5185096706265619 -0.4798211729955655 176 27 31
1.4789328941180260 -0.1337931238163578 -2.4124633804025697 59 39 40
0.4252823782096216 -0.9553845676797776 -0.4803416772816329 123 119 120
1.4732203325432769 -0.1740964781799305 -2.4572720194544924 55 56 58
1.4797963359739068 0.7932906494795621 -2.4540138941004943 48 37 43
0.4244620917092765 0.8370309561515604 -0.4831433521548963 59 57 58
1.4912456315483351 0.2954682425410561 -2.4017659708732957 33 25 40
0.4487187094086702 -0.0446032002882228 -0.4819585464879107 72 168 32
1.4794454445096101 -0.1510870380258809 -2.4180954354870008 56 50 52
1.4843227959971639 -0.1637512909191431 -2.4174574302037608 35 29 31
1.4848681457091986 0.0398067277408594 -1.1504212615217813 37 11 59
0.4785655173309829 -0.0064563692349349 -0.4689790883930695 57 172 17
1.4824449093888987 -0.6997485577836325 -1.7134559667400915 48 34 34
1.4843227959971639 -0.1637512909191431 -2.4174574302037608 35 29 31
1.4807662310400960 -0.2427608431655041 -1.1644217142132045 34 28 30
0.4785655173309829 -0.0064563692349349 -0.4689790883930695 57 172 17
1.4763260083164036 -0.1565463984462797 -2.4310156859292573 34 28 30
1.4864028659773718 0.0632407505072095 -0.6528147522605094 55 49 51
1.4754149455561842 -0.4144761377071945 -2.4744491224338758 53 52 58
1.4761011701984466 -0.4141261163603375 -2.4732443956321708 53 52 58
1.4833507660648628 -0.2512787364443217 -1.1671719894970380 52 46 50
1.4822942424709951 -0.1634950205723365 -2.4697902379875720 50 50 52
1.4790584007726431 -0.1012732574614100 -2.4925279603436890 41 19 22
1.4855712885662564 0.6612682554641169 -0.6300069788613784 36 30 66
1.4774951793268614 0.7843596385012236 -2.4793262343406957 55 53 54
1.4565404754291382 -0.6893198570198699 -1.7463855556756513 50 30 29
1.4904825257173380 0.0774527295473059 -2.4818222974224331 55 55 55
1.4736089673168882 -0.9935300878090764 -0.6530637906458289 54 54 54
1.4846306899542283 -0.9303659019973918 -2.4745897053832482 49 50 45
1.4829053295218679 0.4485282568942763 -0.8335091434331966 29 21 36
1.4837672142113842 0.3696914338952497 -1.2682387495198737 35 23 33
1.4791388557168434 0.8006467641561048 -2.4931054838211537 31 25 27
1.4820843756744924 0.2126984066133186 -1.2843878785571508 39 32 66
1.4422171998493374 -0.7846920076447611 -1.7766515752204619 58 54 55
0.5141806174477201 0.7028225182686298 -0.4814081661998299 59 58 56
1.4850439569008231 -0.1497115141275518 -1.2906465195509034 48 56 43
1.4781409951081663 0.8417590889254003 -2.4934034594077410 35 30 34
1.4849090195917563 0.7637783743777119 -1.3467135458431128 31 25 29
0.5273228920792623 -0.3929000393331523 -0.4820886879749455 185 16 181
-0.3858526384814971 -0.8689773565850464 -0.4771257224340757 213 114 109
1.4816134152755065 -0.4450763806963626 -1.7872446916542399 63 55 36
1.4819191184916831 -0.0177228197170995 -1.4568869642867850 46 46 48
0.4438789257511260 0.7982537994173267 -0.4860830734077686 41 36 40
1.4824449487297324 0.4719635607797426 -1.4671196585401358 32 26 26
0.5792986110885446 0.9120209167059196 -0.4825592445783267 75 19 64
1.4819499428775402 0.4630082140080772 -1.4728178000015033 46 55 60
1.4954453653580941 -0.5484294111575884 -1.8236950018978848 49 16 9
0.4717358194828283 -0.7332314367433298 -0.4801058248514630 153 31 88
0.4741419747729088 0.5131418255745402 -0.4831432217360561 52 52 54
0.4800719720879109 1.0006622637100389 -0.4828180385294197 26 15 75
0.5921659926395593 0.6225802290683667 -0.4829712653948092 122 81 87
1.4817593969599967 0.3859642441929931 -1.4796454149379237 42 32 59
-0.2486887085510172 -0.3802942932006184 -0.4786459134164291 148 171 143
1.4833472518068700 0.3776665813779839 -1.4834111438130966 35 30 36
1.4838223796779737 0.4626138456745817 -1.4874052634045645 18 45 62
0.6400318586162140 -0.7618949864475647 -0.4815592411493764 122 127 121
-0.2486887085510172 -0.3802942932006184 -0.4786459134164291 148 171 143
1.4809575706976361 -0.5666089677156741 -1.5056601588305931 44 18 19
0.6439269818250948 -0.5471217326872968 -0.4814956017351792 181 139 161
0.6875303392979345 0.7369560606489768 -0.4929003567428476 112 20 121
0.5185391270382792 -0.8725772870194373 -0.4809281518910347 76 75 73
1.4830766761786793 0.8971565345791329 -1.5568372989318258 44 40 37
1.4797828990475690 -0.9979741919852674 -1.5591764868607909 66 36 28
0.5121901205632891 0.3390564070046516 -0.4843177445520923 60 58 59
1.4821274838379175 0.8885787553255814 -1.5614809559538025 34 28 32
-0.2252399961837321 0.8742061215572560 -0.4794663895756631 46 16 162
1.4813044107441575 -0.1287368650527672 -1.8962506427243040 56 16 6
1.4810886902118110 0.9050280481929835 -1.5715667064139589 44 41 36
0.5360867096540830 0.6823900458145190 -0.4816374359112282 59 59 61
1.4813491906039433 -0.1288781631868144 -1.8951938788386167 56 16 6
1.4813865770383297 0.4790638281302894 -1.5738862197216152 31 37 37
1.4809414384774342 -0.1902380710720283 -1.5842251068162756 42 62 51
1.4824877678761135 0.0159461226364963 -0.7625787256771981 33 27 29
1.4822109015682789 0.9044393693979877 -1.5874505365081015 34 28 30
0.7343410555677335 -0.0446485318640431 -0.4825689514720695 134 76 160
0.5491213391239531 0.5208713986150342 -0.4828137983781426 44 48 51
0.7356379000228598 -0.2445640535752441 -0.4828794718266600 144 20 104
-0.1707244172972578 0.8676347703134631 -0.4802953895675232 53 67 16
1.4824877678761135 0.0159461226364963 -0.7625787256771981 33 27 29
1.4826460432201749 0.9122392574376330 -1.6009350264180817 32 28 27
1.4809352082134855 0.9355313187878422 -1.6109348018854952 36 39 28
0.5746677588414507 0.2707993368672925 -0.4851029734473361 154 120 110
1.4818925117408024 0.9200583917424187 -1.6122371056942724 38 29 34
0.5868908758346821 0.7962436543799221 -0.4837410512667271 93 71 94
0.5885329506142902 -0.3216809362931507 -0.4819398062428400 57 176 32
-0.0976089917986312 -0.2399093529394095 -0.4788894376961829 184 24 32
0.6060821870035539 -0.9541534527706897 -0.4815666597249809 151 25 122
1.4836841355123778 -0.5267401432816091 -0.8266818575571320 31 25 29
0.8656108467316693 0.5771998210811957 -0.4797433144814492 170 17 159
1.4823672535848476 -0.9561716284574863 -1.6265540455381613 37 27 28
0.5940016380520258 0.7627993346083429 -0.4717499202316165 159 20 147
1.4811340401508282 -0.9441858877529856 -1.6350597288556838 41 31 19
1.4834705392833867 -0.5118794343196471 -0.8442127267083137 29 35 23
1.4835245646966053 0.1492222283960973 -1.6477679610972118 34 25 30
1.4467025925299408 -0.7673615615632106 -1.6835800923654411 38 42 17
0.9064372545617261 -0.6844345409318846 -0.4826462657915156 185 103 167
-0.0185284043402407 -0.4100345242412817 -0.4791731456766150 172 152 154
1.4823498008675704 0.7612362297641495 -1.9480650333046401 28 39 43
-0.0054425529163232 -0.2070886216416102 -0.4793011644518329 27 178 187
1.4823498008675704 0.7612362297641495 -1.9480650333046401 28 39 43
1.4791384450554728 -0.3538399353011775 -1.6725641102235083 19 55 55
1.4815760651370902 0.5113737441844642 -1.6747631123001365 31 25 35
0.9505237542939201 -1.0053597118037700 -0.4824211734316521 73 172 53
1.4816789878549359 0.1724323828109289 -1.6777322596506679 37 30 37
1.4755629838392501 0.5361728645837202 -1.6845610194710186 56 52 53
0.0165393415432012 -0.9315894691754727 -0.4785656175381216 173 164 33
1.4831403447755500 -0.8461360193770452 -0.9028632736093899 56 50 52
0.9679431747367566 -0.9977891045816353 -0.4824358620251763 62 183 30
1.4816894017716888 0.1178863517761902 -1.7341688656598404 40 41 43
1.4811936327327357 0.4958351472528638 -1.7357694842562850 20 45 50
1.4815976016552603 0.4960622157218418 -1.7355246948164069 20 45 50
1.4843474271487311 0.0949876579688521 -0.9088149798744908 37 26 30
1.4803335281907413 0.2350618735672974 -1.7554147033420451 35 28 36
1.4827470008680332 0.0851282299392295 -0.9159365352999970 56 54 55
1.4408129950066428 -0.7241841950265250 -1.7879577976476893 39 25 25
1.0941273251947412 -0.7709270410871394 -0.4831812027274968 177 75 175
1.4826703361615723 0.7448919050195485 -1.9764788250573206 45 58 64
1.4809174691674258 0.5660819218550086 -1.7879238279340313 33 24 29
1.1004268609149788 0.0581805748142786 -0.4836000571838425 112 118 150
1.1044431564848258 -0.2949429514763842 -0.4838099523815277 48 178 16
1.4795679012463891 0.4304415267344672 -1.8037442639839243 19 14 44
1.1296369537761020 0.6224193691127665 -0.4853051851408074 35 147 45
0.0988172310659228 0.6504718741405336 -0.4814345317778680 52 29 15
1.1508760210614928 0.1052433687098046 -0.4871164020181291 63 34 140
1.1751210800251048 0.1144625312786073 -0.4846405714875394 121 150 68
1.4432971578661977 -0.5992921945428525 -1.8556850310877657 37 28 31
1.4862139035082338 0.7652178831673462 -1.9885816773476022 39 27 31
1.4807253047888369 0.3072619767128025 -1.8312084047922068 41 30 44
1.4862139035082338 0.7652178831673462 -1.9885816773476022 39 27 31
1.2125452989248879 -0.9326415989576445 -0.4837310475066392 153 66 144
1.4790689116635500 0.6364226905149880 -2.0046102275557693 40 28 32
1.2351354250996300 0.4055071765926944 -0.4852047613504746 44 160 157
0.1091973648199612 -0.3966173596126221 -0.4797769601025880 162 153 156
1.4800174126580097 0.6640164285262901 -2.0171463226739372 31 32 37
1.4800174126580097 0.6640164285262901 -2.0171463226739372 31 32 37
1.3165924602018315 0.4554469044857452 -0.4861691038128574 12 170 169
0.1260028331052563 0.9972510485790531 -0.4816115002372137 25 16 69
1.4804040963184484 0.6301582425569074 -2.0208154124161881 56 50 54
1.3290784876086779 0.7178244950811478 -0.4863895265550753 142 133 134
1.4789878895751982 -0.2917159473488133 -2.0426296550949812 29 15 15
1.4819522685329574 0.6231657876036163 -2.0595414940922674 56 47 52
0.2897109522376498 -0.9792990155896317 -0.4796585487982165 181 156 149
1.4962052395679701 -0.6158879720438478 -2.0876044778821679 41 32 35
0.3135201930515657 0.5237857448162583 -0.4796444964289802 61 59 72
1.4820841719081230 0.4722157372677842 -0.9966037318361870 30 24 72
0.3318992378827040 -1.0040499124234521 -0.4798450456057468 169 151 149
0.3494188370621005 -0.9917618576180338 -0.4799866033852407 139 117 129
0.3815486160252969 0.8677722273747016 -0.4821273547461847 30 28 33
1.4861485185592844 0.8840750104339820 -2.1674369180688702 46 57 59
0.4789109746591416 -0.0076823769260792 -0.4530088811616044 91 160 97
1.4824754402490066 -0.3380645962499601 -1.0458779570470749 40 22 38
1.4791387478074420 0.1336066528899091 -2.2335308667826457 32 31 36
1.4781408634983666 0.1336946451337199 -2.2348928198148021 32 31 36
0.5363883278869082 0.5612832074955686 -0.4827951116200500 55 56 60
1.4760563780792122 0.3432077817816950 -2.2348735865483746 51 56 52
1.4817782821255210 -0.3221153232297818 -1.0657211262298936 36 25 29
0.5731068051604512 -0.5131814586526884 -0.4804081763403451 186 21 25
1.4818403144670538 -0.2991972495816970 -1.0943795987801870 33 27 29
1.4810206079973494 0.7055556490249087 -2.2597428536339943 55 54 59
1.4843310838839676 0.0982928483176357 -2.2676546771790509 18 13 35
1.4754830881398993 -0.3497284222262260 -2.2815367310846555 59 55 56
1.4825057939382416 0.2208475881177838 -1.1569409985360184 32 22 31
1.4850853638664550 -0.2507689660091635 -1.1690754185491175 53 47 51
1.4935760276587888 0.1184026573973270 -2.2744614119616764 38 28 36
1.4798756532818427 0.1435745410561126 -2.3091438133581272 28 23 29
1.4795520220608365 -0.2276681514113960 -1.1819291270300432 36 30 32
1.4796681435239194 0.1438183127813184 -2.3086595916643255 28 23 29
1.4804425749226517 -0.1639673930671746 -2.3190464258355532 52 14 13
1.4859307147690823 -0.7044905326138259 -1.1986256599878071 56 54 57
1.4832395394808209 -0.1545584899598746 -2.3306252421886833 57 15 16
1.4778478065728695 0.0135263900269690 -2.3416039050430641 42 37 69
1.4792984991554825 0.1842356302079551 -2.3640403219445223 16 11 65
1.4823405002807235 -0.1759654685868700 -2.3681792267067450 59 54 58
1.4808785906875663 -0.1761340971607836 -2.3699576430296085 59 54 58
1.4875481179336727 0.2627746948599566 -2.3646299945339639 59 55 54
1.4832155057030574 -0.6827842414518577 -1.2710591203739354 28 34 24
1.4815651738513260 -0.2361320814266600 -1.2786233371874063 32 35 26
1.4763984284690785 -0.0262013487204600 -2.3912743109399108 23 20 31
1.4834152852132094 0.2829316042976624 -1.2814326678718528 34 28 32
1.4792403970373760 -0.2721429778304434 -2.4026657689777888 28 31 36
1.4815190353453691 0.2826840074098090 -1.2817758688131216 34 28 32
1.4786969267662156 -0.2723103565477268 -2.4031352019904442 28 31 36
1.4819608690367461 -0.6756923428208070 -1.2858425507362472 35 26 31
1.4819608690367461 -0.6756923428208070 -1.2858425507362472 35 26 31
1.4720796003041006 -0.1592788748763460 -2.4480185270302464 56 54 57
1.4769630806274563 -0.1593875217444160 -2.4441440275629454 56 54 57
1.4828257099076081 -0.3999132035733776 -2.4487130400446997 33 33 33
1.4789536098140461 -0.0005033520581556 -2.4625339188403879 39 35 60
1.4863232855423041 0.2817510153326050 -1.3008662426832569 55 53 58
1.4820953681143916 0.7389853078638838 -1.3067811839477417 39 30 35
1.4808786977694393 0.0716763094409874 -1.3111616430912985 42 21 38
1.4786215236890325 -0.3189625564672410 -2.4874524246040037 30 40 41
1.4790800537713860 0.4414411279584172 -2.4917411912816285 30 33 24
1.4793921194641566 -0.0379764318058703 -2.4407376629778237 37 16 15
1.4819619313442702 -0.2880631777062497 -1.3233191608739858 48 28 39
0.8833904855039501 0.7557005086803903 -0.4845115630659517 42 170 21
1.4712994535287112 -0.4401073499394192 -2.4644457662934984 56 56 54
1.4848719278794056 0.8763738811090864 -0.5494274184416208 21 20 28
-0.4904949060716570 -0.4492436578286335 -0.4642745858614638 189 16 20
0.1906672657639587 -0.7358987016495416 -0.4795260491914010 64 182 36
1.4822289889307687 0.4400013670458214 -1.3400252731747671 7 38 67
0.8833904855039501 0.7557005086803903 -0.4845115630659517 42 170 21
-0.4521385313975733 -0.8454758530428363 -0.4768913081730163 183 166 156
1.4862505799736112 0.8764633077276901 -0.5485457154336336 21 20 28
1.4833965191274949 -0.1357491235147084 -2.4580453895515015 58 53 57
1.4822289889307687 0.4400013670458214 -1.3400252731747671 7 38 67
0.1861391575144437 -0.7395281798434853 -0.4799591638732002 64 182 36
0.9058632453132111 0.6415985530986756 -0.4844806238885279 41 169 20
1.4758361826653938 -0.1031569956401972 -2.4900911161086525 52 20 25
1.4822770243077228 -0.2797237755426316 -1.3468141181077977 53 25 47
1.4859118988476367 0.8948051230569499 -0.5550586303773324 46 47 49
0.9058632453132111 0.6415985530986756 -0.4844806238885279 41 169 20
1.4795147833045297 0.5718482805704219 -2.4890991577449242 41 32 33
-0.3621411249382611 -0.5802918364632808 -0.4774631618259861 165 152 144
0.1858272895838524 0.5500270870090882 -0.4812954845624582 73 72 67
0.9092108545020524 -0.1210605920623752 -0.4837240944984458 164 152 112
1.4979855890046843 -0.2692311734175242 -2.4746120268139298 70 70 70
1.4825944329697085 -0.3414115174863223 -0.6923348228558711 55 55 53
-0.3245594198559870 -0.8327023687429728 -0.4770361144846669 190 149 43
1.4847917946585276 0.0213359664907356 -0.5637750581717728 56 56 56
1.4841735390082549 0.8304854838776774 -2.5011359438209944 74 69 73
0.9104189514795508 0.7791571804530248 -0.4845176167671006 133 144 130
1.4834779397847524 0.0215178571814188 -0.5628876611860654 56 56 56
1.4849392529910195 -0.5042910532346899 -0.7271359443742968 36 60 34
1.4812253143141900 -0.2174383518750025 -1.3752019415685681 37 28 31
-0.5207759040985881 0.7826924407220404 -0.4740300370499504 68 70 65
0.9241749780823426 0.7142119971221784 -0.4845703864820553 133 150 134
0.2185011452037530 -0.5787261597551268 -0.4796047888722096 162 160 173
1.4812829521372983 -0.5050792906289886 -1.3807848631879442 59 37 40
0.9425223967742272 0.6151775881536530 -0.4839936650068329 139 146 139
-0.3182904803700378 -0.7572386386092472 -0.4767771015566504 171 166 162
1.4809894482269388 -0.5049523851668716 -1.3810324064756543 59 37 40
1.4841746668915112 -0.4189752488918952 -0.7333292151372828 24 18 30
1.4839419145639725 0.0503501608862930 -0.5830917943681191 42 60 60
0.9696272713662007 -0.6559503581524726 -0.4830920434159397 189 20 173
0.2235388622674971 -0.5438864068049005 -0.4793608215244274 182 15 22
1.4800552801525095 -0.4659629667082852 -1.3849330135418843 69 9 9
0.9696272713662007 -0.6559503581524726 -0.4830920434159397 189 20 173
-0.4344954739169731 0.8920166317025188 -0.4785159358677316 149 141 154
1.4868741911733967 -0.6618784406613266 -0.7377500049673985 29 16 10
1.4871449097006817 -0.9809651982210443 -1.4356616846528918 56 56 56
-0.2285498501570381 -0.2512662239456907 -0.4788207262756676 157 162 155
0.9751372698423053 -0.7242651043549596 -0.4831572046974004 171 148 166
0.2055681136520786 -0.5485309967297026 -0.4802045026850983 189 34 38
1.4855665728661498 -0.3590597157410614 -0.6204131017523256 55 45 56
0.9751372698423053 -0.7242651043549596 -0.4831572046974004 171 148 166
-0.2261748823195568 -0.8410662744835858 -0.4780627245631746 69 15 173
-0.4197944150551201 -0.5392013905428620 -0.4773759700768558 168 163 159
1.4850896207876905 -0.3592311323672555 -0.6210870929521871 55 45 56
1.4789084688537006 0.8782579429715764 -1.5421730059658925 27 32 35
0.2238447587563658 -0.6131807582340558 -0.4810976099939200 54 16 187
-0.4193356765277548 -0.5389636855543584 -0.4778226371426991 168 163 159
1.4843912664624261 -0.9819801369373917 -0.6326535241608062 33 29 30
1.4843912664624261 -0.9819801369373917 -0.6326535241608062 33 29 30
1.4877103839922228 -0.1698298823104193 -0.7855797632573271 23 18 12
1.4857938644282789 0.6540512654614817 -0.6408973318540667 33 26 70
0.2238447587563658 -0.6131807582340558 -0.4810976099939200 54 16 187
-0.3842109048006973 -0.4455360904179902 -0.4775490182226443 67 80 27
1.4857938644282789 0.6540512654614817 -0.6408973318540667 33 26 70
1.4817935469460941 0.4007480026273104 -0.7936908411935867 56 56 54
1.4871495166926165 0.0645977216543852 -0.6719294373174972 35 26 29
1.4818581828005610 0.2695264555887055 -1.5721798481111242 57 48 53
-0.1167738144560395 -0.6101840113895698 -0.4783454725472712 165 159 163
1.0424824373614352 0.7639969299920090 -0.4852360569852568 144 144 144
1.4864168736428143 0.3173749070484158 -0.6773290403247626 53 50 59
-0.3375091719871494 -0.8567567586698362 -0.4781094213897406 191 15 25
-0.0634443541743469 -0.7309045440842478 -0.4782434497652468 181 175 175
1.4817761171867709 0.5005740693647790 -1.6615992217474804 57 55 56
1.4845699783299324 0.0520558783490867 -0.6772586099409811 57 55 56
1.4807841803046382 0.1079292715222819 -0.8037913556304945 56 56 56
-0.0520170887446787 -0.8192679688027625 -0.4786216302619848 177 169 26
-0.3264232757697769 -0.3884962917755115 -0.4773079553615530 64 81 10
1.4783625255598640 0.6187408828648984 -1.7088257766464336 19 68 65
-0.0468805984636236 -0.1740197021944976 -0.4793801447546581 41 30 169
0.3032437976978137 -0.3304799084566645 -0.4824313743142234 158 162 163
1.4860058944457670 -0.5642796989090960 -0.8053935182280053 53 52 57
1.4792169719772437 0.6334389910824731 -1.7306341121083182 10 71 72
0.3106811687935481 -0.2782349176782640 -0.4792098543536031 164 28 30
1.4827476214705941 0.4439515633516711 -1.8087708444897157 55 55 55
-0.0314354847327135 0.9252351343204314 -0.4810702754598568 154 138 149
1.4829650348835337 0.0788693879719750 -0.7030382058282301 35 26 31
1.4843660968709391 -0.9225839676964525 -0.8097029584773567 56 56 54
1.4829650348835337 0.0788693879719750 -0.7030382058282301 35 26 31
1.4794647064740138 0.7019349626689810 -1.8392591423718416 6 35 39
1.0985413854697359 -0.4920170142695847 -0.4836328167854960 181 20 26
1.4795808024809984 0.7022121940106083 -1.8384362347722800 6 35 39
0.0034375324943920 0.5989155145600855 -0.4807152893512305 115 17 14
1.1000058351847819 -0.3714601926347160 -0.4842544756068058 56 170 30
1.1284737583402122 -0.6028105247747436 -0.4837019266163601 179 160 32
0.1569170195809869 0.9283520521591958 -0.4815724312858080 58 55 62
0.3848948261238844 -0.4486743237712854 -0.4799328378953335 161 160 156
1.4797121629691958 0.7477411017273937 -1.9594914663023140 27 16 24
1.4834812457282804 0.2908116390365276 -0.8648297996917855 19 17 31
0.1746892339136187 -0.9085810436053213 -0.4788649958590272 187 22 28
1.4797121629691958 0.7477411017273937 -1.9594914663023140 27 16 24
0.1843061067172689 0.9962810887614348 -0.4821775830753631 17 28 24
1.4843421699193848 0.0009858678709723 -0.7333374498217878 33 27 29
0.3848948261238844 -0.4486743237712854 -0.4799328378953335 161 160 156
1.4824878888633133 0.7517863817278493 -1.3276223831903855 26 16 25
1.4834812457282804 0.2908116390365276 -0.8648297996917855 19 17 31
1.4834894072946603 0.7513384948937950 -1.3269781678154833 26 16 25
-0.1957825603221805 -0.5959201674325110 -0.4774932080816889 60 186 16
1.1541943449286967 -0.9149349997283567 -0.4834274145238822 166 162 163
0.3943128295708616 -0.4957180395694248 -0.4796855867313942 48 19 187
1.4823901863920337 0.7516036764812228 -1.3276504925120878 26 16 25
0.2037669717101590 0.8717590701475244 -0.4809756067104402 47 17 15
1.1863011555257297 0.8208986533778991 -0.4858836496453363 143 143 143
1.4821350999965985 0.3563975040387711 -0.8739707300695964 9 70 71
-0.1599553692166701 -0.7660518393387454 -0.4777897705732106 167 166 161
1.4843339740920416 0.7491875908460430 -1.3487008419818043 54 53 51
0.2870334496487718 0.8654697853555138 -0.4812674853631834 59 55 54
1.4772669433015626 0.0118229469802087 -1.3840913825758581 53 54 56
1.4805113545363171 0.4141039964796582 -2.0200772543385912 28 10 60
1.4843421699193848 0.0009858678709723 -0.7333374498217878 33 27 29
-0.1443138291797056 -0.2280161519043885 -0.4879583220718712 61 76 9
1.4877240425228109 0.1851254181274113 -0.8750708558241560 55 56 51
0.3282944809390316 -0.5989557487769039 -0.4814618121502348 164 162 163
1.2325355891065930 0.6620618631588573 -0.4858332597562490 141 146 142
1.4840775107459920 0.5832633457582604 -1.4121509930304148 17 68 12
1.4800175156343196 -0.1534292371641490 -2.0549075020301055 70 10 62
1.4806128971570418 0.7958538642206294 -2.0765316391751281 57 56 54
1.4827051987364417 -0.2975763513877225 -0.9141889961322410 54 54 56
1.4798434348054004 0.4199495302026186 -2.1174151669917496 27 15 61
1.4785433604009508 0.9966724478276323 -1.4696463059492944 16 72 7
-0.1001009433290945 -0.2214155503896166 -0.4791381566049707 84 142 143
0.4026509114353101 0.8356719476309162 -0.4825472967366747 26 24 27
1.4813339855804604 0.6164219851024207 -1.4738777716211893 56 56 58
1.4798434348054004 0.4199495302026186 -2.1174151669917496 27 15 61
0.4272377684206486 0.5441733800276231 -0.4817875129817154 44 36 34
1.4835707831109655 0.3217581102575894 -0.9988372044446140 14 31 21
-0.1011571298446964 -0.7846125652564176 -0.4790377019539928 55 184 29
0.4337863165623906 -0.5043799466399910 -0.4809921358387492 160 121 139
1.4784062649721876 0.2082760142158601 -2.1193893391169469 20 66 17
1.4813708211485253 0.4798817256442668 -1.4836357625375451 29 28 34
0.4367921175573637 -0.1787141839176379 -0.4810967553796748 44 78 51
1.4820582369816802 -0.2779979755090338 -1.4904081241558920 50 30 39
1.3177625351621263 0.7342479056906807 -0.4864406060647844 57 67 15
0.4640031581864733 -0.4968487787714406 -0.4812915328689418 23 76 80
1.4797878734062380 0.3000360996227878 -2.1512473682649049 54 56 51
0.4623834318594471 -0.1195845264110432 -0.4813120944302949 172 149 99
1.3232634167703095 0.7868290305811892 -0.4858832697408450 54 16 161
1.4756759758737450 0.4734479333758155 -2.1700088601767629 72 55 9
0.4806692414986654 -0.4733897649928006 -0.4810768994170191 125 143 157
-0.0660677248091436 -0.8513519901173292 -0.4783981611431781 64 187 21
1.4818991061678832 -0.2706965581981276 -1.5075841236718384 51 22 40
1.4846197475049656 0.1489086445006534 -0.8625407314403005 28 32 18
1.3232043965045173 0.7864428406715316 -0.4862829930134758 54 16 161
1.4810339253068048 -0.2705381423617812 -1.5087884287759568 51 22 40
1.4831717074898436 0.3004526882163609 -0.8893447670417310 44 55 61
1.4830419225160212 0.0713971944218465 -1.0457808489506182 56 56 56
1.4824568513275800 0.3001137069301123 -0.8897628646277349 44 55 61
1.4788417900381641 -0.1465422765961761 -2.1889722294286940 52 50 53
0.6117560364776102 -0.7637264996572214 -0.4815072467520619 20 82 79
-0.0452161869283529 -0.8963571545311084 -0.4777398172452352 66 177 36
1.4808798231565745 -0.4307949174141495 -0.9134155753966359 54 54 54
1.3566161995133539 -0.5177813918123974 -0.4857493848085060 162 144 134
1.4809851514195600 -0.2625846378075787 -1.5334184884870117 47 24 44
0.6082585160879039 0.9972356111667909 -0.4843539326687393 163 19 19
1.4766286259306671 0.1046730175024708 -2.2434294872572180 53 52 58
1.4930337927018413 -0.4288670208309440 -0.9139508535362701 54 54 54
1.4034090975618323 -0.9961039531930845 -0.4745704084719760 171 137 174
1.4825442743114912 -0.3259122257118940 -0.9238269199529964 54 56 55
1.4841049348805344 -0.9182512067765689 -1.5604515523212639 64 48 49
-0.0388548749601843 0.5932779401237614 -0.4799663205811940 47 172 18
1.4788379261600011 0.2426654104569970 -2.2485334919278039 57 55 58
0.6417275720455933 -0.2550862421198739 -0.4822950669182743 63 84 65
1.4831092525900560 -0.1787127767688692 -1.5793627414250646 30 31 33
1.4836743738888856 -0.2759470016555024 -1.1164054678642170 32 19 26
0.6746740763753953 0.8277319606502836 -0.4829484835436060 56 14 150
1.3906544030859846 -0.6497338339399130 -0.4844967386885384 172 160 88
1.4836743738888856 -0.2759470016555024 -1.1164054678642170 32 19 26
1.4648204966630760 -0.8928796212565090 -1.6005182615054574 58 55 50
1.3903837917327304 -0.6499156810239167 -0.4843656353615852 158 165 121
1.4846949670990714 -0.2451089960350178 -1.5844991689923391 58 15 58
0.0027638796510970 -0.9656543856908747 -0.4786417982122016 59 190 16
1.4766688553335954 0.3995563181849140 -2.3290902261233262 58 22 6
0.7228090588926918 0.5808587482667612 -0.4832126199406901 163 131 134
1.4757877913549475 0.9180500519828215 -1.6326068136162659 55 55 57
0.7235752530276087 0.5797488649465193 -0.4835126550036523 163 131 134
1.4818149483753043 0.5722378052436594 -1.6566464110510346 38 32 32
0.8059144254925372 -0.7080106770152423 -0.4825888211433981 50 185 20
1.4815333528853842 0.9958270797946897 -1.6634580441576223 28 30 17
1.4835083166547038 0.5337938978149354 -1.6634549349913017 56 54 55
1.4842003065365088 -0.8334622376943767 -0.9583589660083386 32 26 28
0.8332647906634568 0.9979107894226086 -0.4854583578303026 36 172 14
1.4825141599109790 -0.5862419294578123 -1.2208875697304471 73 7 9
0.8445055971577921 -0.7045035720888548 -0.4823707669850887 163 154 145
1.4790778040671269 0.1015717991663045 -2.3319187777343662 18 30 30
0.0021970185983232 0.8599547462998967 -0.4805482574250003 143 143 135
1.4809634428004315 0.2016932911937803 -2.3656922003916550 53 51 64
1.0551566615741685 -0.2670201518989404 -0.4837579550976150 73 65 62
1.4856451308244463 -0.7320505017125255 -0.5116933598924271 57 53 52
1.0551566615741685 -0.2670201518989404 -0.4837579550976150 73 65 62
1.4819777728136623 -0.6913101558423037 -1.0244240622117413 50 33 25
1.4831965203688275 0.2712338127292131 -0.5164875506174944 54 55 50
1.4785420418922337 0.0268928065612568 -2.3713792761781964 55 54 60
1.4773910673233868 0.3417944420885677 -0.5189442129835968 9 69 67
1.4794962097058562 0.0261028444905853 -2.3689778846986957 55 54 60
0.0320149948381948 -0.2144671239783541 -0.4798389796335648 176 184 171
1.0976032105118099 -0.4468961269358213 -0.4843345532893876 48 83 87
1.4786498854737693 -0.0322537987834877 -2.4166838075352950 52 57 51
1.1555281460972724 -0.2103192081253636 -0.4843666440009910 150 154 157
1.4874535527891981 0.8746176294312011 -0.5265810015880684 54 55 50
1.4806653113508617 0.2155909747004872 -1.7767518612790956 15 9 71
1.1542601063595497 -0.2101157077034533 -0.4841513987193382 150 154 157
0.0999717775883701 0.8575531413716275 -0.4815523213635156 72 57 14
1.4842210130058351 0.5083701462441296 -1.7960021352385018 40 57 67
0.1557828313145284 0.7524905132366264 -0.4817001370455491 74 18 21
1.1855287409362760 0.9505683910835442 -0.4848451762888259 140 140 138
1.4797064496342245 0.5091225316509562 -1.7997208205913804 40 57 67
1.4835404139126693 0.7146014623942811 -0.5489828716992033 50 50 58
0.4774495257399301 -0.0145796288271809 -0.4617766577108545 60 174 24
1.4841344914359234 -0.3130970902219272 -1.0754895673739842 34 28 32
1.2172522107442205 -0.5172131206284573 -0.4845907033778726 179 129 128
1.4841344914359234 -0.3130970902219272 -1.0754895673739842 34 28 32
1.2172522107442205 -0.5172131206284573 -0.4845907033778726 179 129 128
1.2562191582715245 0.7519737855331495 -0.4861956371194716 47 20 153
1.4791854307451371 -0.1937123792092013 -1.8831654982015655 61 13 63
1.4852042692498408 0.2064759826394265 -0.5693306408698504 59 57 18
1.4788144432492514 -0.3876880000272146 -1.9139362285937047 50 46 43
1.2814904620150052 0.5010121794769133 -0.4843196941447525 15 169 169
1.4853757714321667 0.2687493902490614 -0.5781543261611437 36 57 58
0.4336975293168733 -0.1467748830041305 -0.4716157187371361 170 154 67
0.2016480858866193 -0.5106499858855919 -0.4791918504434715 161 164 173
0.2079684415434851 -0.8034865397376907 -0.4796741534508776 71 178 22
1.3350874301379050 0.2684309467746342 -0.4869722448318959 29 168 171
1.4794901815318093 -0.0120580850057954 -2.4849242468464663 21 19 7
1.4858978046852800 0.6711685438368405 -0.6182472103583202 27 59 35
0.2079684415434851 -0.8034865397376907 -0.4796741534508776 71 178 22
0.4494122256376474 0.6236874174856057 -0.4819153770660933 58 58 58
1.4816175025753093 0.1256307067185697 -2.4843828469967422 21 70 14
0.2155804494382401 -0.9057352944792956 -0.4793943896610437 65 186 21
1.4801681733491414 0.6010623351271699 -1.9390381559293495 54 56 55
1.4839514886806919 0.3780031755125521 -1.2486451600679822 47 56 61
1.4836058729775807 -0.2562823636769206 -1.1231891016736442 55 55 55
1.4357023227635590 0.1513485086997247 -0.4857801662561497 24 170 170
1.4827942381315513 0.0449078287325839 -1.1371532134495974 47 46 64
1.4536897972740381 -0.5108345616405640 -0.4848619354407696 173 32 23
1.4784322375433678 0.6092235953275411 -1.9613511902601188 53 55 54
1.4798859650906488 -0.0987829190449955 -1.9792660460866751 63 14 9
1.4849467138426271 -0.1282630799778588 -0.5139009609033660 55 55 55
0.2521277351045075 -0.8654571018112205 -0.4797846684155948 170 161 162
1.4776991738400396 -0.2796793918649664 -1.1434231625163194 55 55 55
1.4795740452493775 0.7786370254654871 -2.0142610575264355 39 28 34
0.2511537443441746 -0.4560540232618592 -0.4807229865538909 161 155 169
1.4800546623539332 0.7660384885642813 -2.0197153602697560 57 57 57
0.2620444888646240 -0.6246807702196627 -0.4805360920114869 164 164 164
0.5000027936166198 0.8947876152750299 -0.4822646717249296 55 60 56
1.4785597483807149 -0.4707540053345086 -1.3006139054909462 52 57 51
1.4816854323044015 0.6456527537400671 -2.0269872287350048 24 17 25
1.4764146266012215 0.1233353491124148 -2.0346809157899002 44 18 19
0.5000027936166198 0.8947876152750299 -0.4822646717249296 55 60 56
1.4762589579588108 0.1225351025163290 -2.0338376973458074 44 18 19
1.4935054166891601 0.9742730666340016 -1.1663307493331367 54 54 54
0.5262282002973461 -0.3560680804541181 -0.4819182751572087 155 164 161
1.4778889140346334 0.2004335070585831 -2.0486725023477592 42 16 19
0.3964052395313271 -0.0983660167859219 -0.4813447236839736 178 154 22
0.5663252690621424 -0.3680597818944494 -0.4819920951608925 55 20 184
1.4870319676136394 -0.2873631274980439 -2.0613383849451528 55 51 48
1.4833234637053312 0.0431011815504654 -0.6427714849848137 26 18 15
0.4546582166159200 -0.4137379279056514 -0.4820301041788157 157 164 157
1.4829086538730079 0.4607835394769645 -1.3258722645623475 7 73 72
1.4839490505428705 0.5909736447327909 -0.6565281906668567 38 32 68
0.4502750861386488 -0.2486978788703363 -0.4816238466747748 19 75 72
1.4833625976087206 0.4606865781352215 -1.3258258207243905 7 73 72
0.5876886595793339 0.3428386882448507 -0.4799557591674561 145 147 144
1.4841744055269945 0.5909472839906075 -0.6564741566717114 38 32 68
1.4786022515341051 0.2227100993174946 -2.1480800031939200 29 65 21
1.4877806581484836 0.8689267717906237 -2.1370845450072546 46 54 56
1.4959219453325705 0.1005789370944956 -0.6977928871547111 54 56 55
1.4830754562768065 -0.3458080308913507 -1.3295907286627557 54 56 53
1.4764701536425580 0.5611790909113805 -2.1592365197723913 39 27 29
1.4764701536425580 0.5611790909113805 -2.1592365197723913 39 27 29
1.4815705405031021 -0.6660515732669666 -0.7352307304765192 32 15 7
-0.3887705565774547 -0.3995287008063804 -0.4781298133793273 172 160 134
1.4802232270458684 -0.1446977165770856 -2.1632657689600645 11 18 26
1.4817357260928228 -0.5174576587143458 -1.3492177331109159 32 7 47
0.6197358642134184 -0.3536908820793127 -0.4801958902229624 72 173 41
0.6476395032170325 0.3373746271590185 -0.4755649236842331 181 18 19
1.4835489574174814 -0.7715783636083279 -0.7653747048439131 69 10 12
1.4809243852908462 0.3402637848151902 -1.1817260130546332 55 53 56
1.4825683818180235 -0.5177985319919366 -1.3478486610836298 32 7 47
0.5208913073262269 0.6207848942995798 -0.4829992312178824 58 54 53
1.4845062259248161 -0.0956023595512298 -0.7810445449046975 41 46 39
1.4766726236238954 -0.6510499925122296 -1.2268706051545655 49 57 46
0.5263333599910095 -0.3566344031881353 -0.4818903628894026 155 164 161
1.4839448334118479 -0.0955773773073359 -0.7815918449051175 41 46 39
1.4781724489557828 0.7115562976122743 -2.2844229866571961 55 55 53
0.6496098622148277 -0.6764223417173045 -0.4824291433016955 163 165 162
0.5782338367724668 -0.1979751934857527 -0.4819801353443036 23 77 61
1.4817482644819819 0.1607253354507957 -2.3311574107288178 19 12 64
0.7012892743618193 -0.2207852140687933 -0.4817491155378038 177 155 35
1.4812515367098977 0.3576140289856196 -0.8359012032483554 32 60 61
0.6421677279415753 0.9142186840025072 -0.4833306905543100 152 18 79
1.4794770187139719 0.2950942619390615 -1.2818292260796491 59 55 46
1.4844168321869540 0.2360782378586227 -0.8388922983669479 20 44 30
1.4757113913492552 -0.1525976513362553 -2.3676827240966123 58 46 46
0.6754673333234036 -0.5896499966516517 -0.4816987966721680 163 163 163
0.7565010281047059 0.6590434284276343 -0.4964168866234929 165 19 40
1.4727029020209159 -0.2068818328202118 -2.3798260178439321 57 55 56
1.4841499453861986 0.0591031938053474 -0.8679229154758038 55 53 54
0.6888683614589657 0.9970062623510985 -0.4838916212623090 165 157 138
1.4781701464260490 0.6855574406686170 -1.3753847411560602 56 54 57
1.4835299327351825 0.3600895735548076 -1.2791557433172795 49 47 58
1.4801249245327024 -0.2487319344361402 -2.3809895649435528 56 56 56
0.6888258516603130 0.9966506856806766 -0.4837018128317875 165 157 138
-0.3241180252765071 -0.4307817245841981 -0.4776134310997998 179 164 45
1.4810062029883106 0.8213920776114392 -0.8958029141899038 50 55 51
1.4838490857775137 0.3602096940736713 -1.2788706727688111 49 47 58
0.7565010281047059 0.6590434284276343 -0.4964168866234929 165 19 40
1.4795225155132370 -0.1585217418129510 -2.3820470447304083 24 19 26
1.4816660805001156 0.5370446678426392 -1.3854089356231583 7 71 71
1.4857118855526017 -0.1405552669808344 -1.2853119648653695 32 28 27
1.4783396471403887 -0.0435067899388394 -2.3817823941395799 56 53 60
-0.2758113380843617 -0.8178178795021701 -0.4793187705440435 57 20 185
0.7847899406667925 -0.6742649868954882 -0.4820390727117680 55 182 30
0.7055583247753024 0.6428707561434495 -0.4835776057248207 146 143 150
1.4906263983097991 0.8894015611928949 -0.9371597612693993 14 70 7
1.4796424087512603 -0.2203819380724250 -2.3877236910408786 24 18 28
1.4818594613394884 -0.3590102078153661 -1.3087313629286839 13 28 51
1.4796424087512603 -0.2203819380724250 -2.3877236910408786 24 18 28
-0.2739523613876419 -0.5633155388410087 -0.4775485706158173 175 161 135
1.4793180848392906 -0.9038216103606028 -1.3198564679758917 55 30 26
0.7062804616357334 0.6446330136575115 -0.4829990165168546 146 143 150
0.7893604268884145 0.9867854111216319 -0.4831516114739741 162 16 16
1.4851515593280964 0.3134315126535914 -0.9606388384380059 51 55 54
1.4771614091248544 -0.2005559368105330 -2.3954722796693746 25 20 27
0.7376104441406836 -0.6557902141669836 -0.4817567329099190 173 153 155
1.4771614091248544 -0.2005559368105330 -2.3954722796693746 25 20 27
0.7856261000970726 -0.2990104008840420 -0.4830729128497167 156 151 155
1.4828481913304410 0.4395897176517011 -2.3906538960450052 56 16 6
1.4854141087014570 0.3425120951176875 -1.0053855509876444 11 70 68
1.4803687604549736 -0.1651514296455717 -2.4006518875598628 56 56 58
0.7910722579390207 0.6529795657083454 -0.4835395408034020 159 158 153
-0.2007204532656045 0.9380795056106459 -0.4798053552365924 143 143 141
0.8022898081174585 0.5893722721707363 -0.4837637667052602 152 135 57
0.7956833649894359 0.7680243351650513 -0.4841137386973904 163 17 154
1.4806830722504496 -0.1348281496273742 -2.4397468824630959 21 14 22
1.4810722353807548 -0.2966788891349895 -1.0713478335067013 55 55 55
2.1126358625487902 0.2985926426430736 -1.1062662951932221 136 104 93
1.4812488420451022 -0.2970270413477487 -1.0723703806628400 55 55 55
-0.1457259491761352 -0.8972938660547951 -0.4779808321754770 175 164 170
1.4801623358851235 -0.3262335931941061 -1.0853859526851313 57 52 58
1.4825134630651324 0.3809349654507770 -1.0897083172087825 8 72 72
-0.1457259491761352 -0.8972938660547951 -0.4779808321754770 175 164 170
0.8202864387695309 -0.7416636240952973 -0.4823199177506581 61 181 22
1.4821806079515096 -0.7693683466636071 -1.0985198166867642 31 25 27
1.4857788802025236 -0.4158756129566455 -1.4578570465244556 57 53 54
0.8202864387695309 -0.7416636240952973 -0.4823199177506581 61 181 22
-0.1476377423753081 -0.8326233904111714 -0.4783015951825925 168 165 158
1.4820637272795991 -0.2964265586890463 -1.4792698844255434 51 50 58
0.8405629335031847 0.3269563454232754 -0.4832505607002410 23 73 74
0.8699173599232800 -0.6891846095708428 -0.4823930579404629 185 22 177
0.8270821689740979 0.8112191898095313 -0.4858934936847329 143 142 148
-0.1115280828639554 -0.6467820208652236 -0.4787241584621709 189 25 16
1.4817399702565066 -0.2359876362126424 -1.2011314470840204 55 55 55
1.4790621082155200 0.8930828720432790 -1.2115787985145252 32 31 36
-0.1120493164738215 0.9007534333772584 -0.4804712906657170 42 170 21
1.4771959337991249 -0.1723060955505230 -1.5000981126298902 54 54 54
-0.1113439440446161 0.9013445184778424 -0.4804084637565701 42 170 21
1.4845726369440702 -0.9562837036574686 -1.2462997481869669 56 18 5
-0.0976074301273181 0.6356101159698030 -0.4811701288298026 161 170 165
1.4844597928915737 -0.2550140024735468 -1.2744765207682689 40 58 42
1.4811066923068188 -0.6612984980810045 -1.2807223372244838 55 57 56
-0.0881311866242142 0.5971045467153151 -0.4795704780007611 171 17 19
1.4811492234545669 -0.4466754914283108 -1.5584333806418964 52 14 13
1.4805443300171528 -0.5594334186734546 -1.2892723387292431 70 10 10
0.8631834752092346 0.6692222440544154 -0.4841890981689128 139 147 149
1.4836788359594089 0.2689723867404036 -1.2891303593133689 53 51 56
0.9618296101938416 -0.1660856264822121 -0.4836872686680503 16 77 78
1.4845589799032557 -0.9879088975416713 -1.2962375603271672 55 51 52
0.9600775761576709 -0.1649087364889755 -0.4836653904277428 16 77 78
-0.0474767295343435 0.8945382902283564 -0.4808781329678684 170 15 19
1.4770088184874590 -0.4626909139835753 -1.6285873047275576 67 11 12
1.4824077986804629 0.4786250775190309 -1.3103097156345531 11 48 40
0.9882712424992174 0.7675235177003261 -0.4846745536702194 139 140 145
-0.0755116708313022 0.8974137603065813 -0.4922084246110263 170 15 19
1.4800750583181197 -0.5286888454979536 -1.3187224484127302 58 39 41
1.4756863172622225 -0.4630609572168919 -1.6290905571770791 67 11 12
1.4800750583181197 -0.5286888454979536 -1.3187224484127302 58 39 41
0.0032199503428449 -0.7732075517778946 -0.4788231191765978 190 184 184
1.0065298324568144 0.7031526897117140 -0.4849990329451100 148 142 142
0.0032199503428449 -0.7732075517778946 -0.4788231191765978 190 184 184
1.4826487209750208 0.2352952212845713 -1.7823045387047287 53 50 59
1.0218983829079213 0.6079654503931285 -0.4858824067356963 148 146 149
0.0107233552415971 -0.8744411372498064 -0.4790932260697997 181 165 77
1.4824397967194747 0.2355094229238509 -1.7828855727385930 53 50 59
0.0593390292975286 -0.9119080255991172 -0.4785737518485004 193 192 174
1.0218983829079213 0.6079654503931285 -0.4858824067356963 148 146 149
1.4743994965015255 0.7627473646508698 -1.8003004267203226 55 56 60
0.1040421085107705 -0.5235248268632189 -0.4784113992157000 165 158 165
0.1006141324850927 -0.5207460353311899 -0.4790053055547062 165 158 165
1.0802524663794546 0.5609377066540789 -0.4849779229924950 141 146 139
1.4806070757264191 0.4562666455459481 -1.8381071217697760 10 21 23
1.4799944417951238 0.5716493410952324 -1.8626662847295385 56 56 56
