ply
format ascii 1.0
element vertex 707
property double x
property double y
property double z
property uchar red
property uchar green
property uchar blue
end_header
1.2598844819062656 0.2405026653434642 -0.0102195775871167 57 52 46
0.1471364927075339 0.3725450430479935 -0.0053219447557800 91 82 77
-0.6061642008412631 -0.2760339110221599 -0.0056035647687346 53 48 44
1.2597533965307739 0.2407784181565049 -0.0104276976597726 57 52 46
-1.0376367327099083 0.2348307546150681 -0.0049449482095436 87 78 71
-1.0139800109061916 0.3707217560510069 -0.0046385585499402 108 99 94
-0.4561747999265705 0.2858381180455714 -0.0046858552381834 78 74 71
0.5276762217074584 0.2333358245398832 -0.0049340370884602 63 58 54
-1.1895332062996828 -0.6032704393512447 -0.0042048094835348 53 42 38
0.5273306318316328 0.2337043438697293 -0.0049687069491879 62 57 53
0.5376382687168328 0.3691588745399305 -0.0045946966726683 82 79 74
-0.4455430929289069 -0.6044320114402865 -0.0039389231745478 66 53 45
0.5643880286575305 0.2333506975577599 -0.0042788752054622 46 43 38
-1.1156911164138463 0.2348281524287148 -0.0046733356067862 59 54 50
-1.2500744871972358 0.2836074606638846 -0.0045482635201742 61 56 50
1.0463813090747931 -0.6005402499176480 -0.0083844000182012 65 47 37
0.5280576703012704 0.7761736043991599 0.0739207062780118 60 49 45
0.6763972479431726 -0.2819918909829695 -0.0048849174915496 44 41 36
1.2673344579608949 0.2831037917402530 -0.0022773924823457 55 52 47
1.3170822709338659 0.7734260774582357 0.0761594158652097 38 27 23
-0.4379318399221525 0.2329023183099329 -0.0046225994456465 84 77 71
1.2430963775350345 0.3703106909007171 -0.0054225196626584 80 73 67
0.0610629278317808 -0.6033759509343998 -0.0048724419764179 69 64 60
-1.0560681888085737 -0.2818981391168469 -0.0049426321052106 66 61 57
-0.4804643979469143 0.2834342223738706 -0.0045158076065077 87 82 78
0.1087528964399754 0.2319020681192319 -0.0046840021071685 63 59 56
0.5644390197840035 -0.6044452632076522 -0.0053750799049870 56 51 48
0.5934862723287374 0.2325733027969872 -0.0048112518092198 56 53 48
1.1644530058519182 0.7773809347928315 0.0716584940031715 53 40 34
0.5642158458797265 0.2830071655191118 -0.0049057209831647 43 38 34
-1.1393298496799806 -0.2821066547638587 -0.0045326331016810 88 84 81
-1.0176538141754445 0.7766117743672961 0.0716535079314098 81 70 64
1.0403176953959814 -0.6010382619338451 -0.0120099114480495 71 52 45
0.0333788895649692 -0.2833925846497836 -0.0049726861336856 75 70 66
0.5644204007976421 0.2828537126223596 -0.0047666242708168 43 38 34
1.0786563477922249 0.2336007352599467 -0.0058532006015612 74 70 67
-0.5021064116927583 0.3642918026983601 -0.0048263438353324 110 107 100
0.6648067302381560 -0.2831480213846199 -0.0044531821357195 59 56 51
-0.6863282026600137 0.7773892883616558 0.0709351621286982 74 59 54
-0.6725760195343827 -0.6065251553966181 -0.0059689872280935 38 27 21
1.1088471886390503 0.2286932424665206 -0.0013715302359104 62 58 55
1.1959199813232184 -0.2823424009064740 -0.0054729956237421 59 55 52
-0.6862761945358564 0.7771681607512363 0.0710954438966085 93 82 78
1.0678003916602741 0.3664579327942981 -0.0071775176185272 69 65 62
0.5564169639498856 0.2804565274957139 -0.0048356635633987 68 63 59
-1.1640211881640170 -0.2841749523017573 -0.0042610545303409 42 39 34
0.4689852189725025 -0.6078977447325949 -0.0050678344072278 95 84 78
1.0676970477347103 0.3632610905314856 -0.0048985040722964 74 70 67
-0.5421191477619369 0.7801187499413385 0.0685761667461971 56 45 39
-1.2373227975798931 0.2301245392372843 -0.0050722926864368 71 66 62
-0.5174549281639165 -0.2823655160415637 -0.0061266176300691 56 49 43
0.4708747026183435 -0.6056540378845470 -0.0065998014740703 101 88 79
-0.3675859178072369 0.7757965379521818 0.0715351509735265 79 64 57
-0.4482597958427006 0.2789480395640405 -0.0046920676263125 53 50 45
-0.5136266553981440 -0.2862383294668487 -0.0039655527445274 48 43 39
0.5055046425039781 0.2300280236108768 -0.0041411918935227 58 53 49
-0.3675859178072369 0.7757965379521818 0.0715351509735265 79 64 57
0.5106324685870104 -0.6067631796123620 -0.0053344036481115 77 66 60
0.7905802986147494 -0.8706581083331975 0.0059368865327186 47 33 24
1.1961698498959283 0.7723240498860727 0.0739534960188452 59 45 42
-1.1250311719254762 0.2278917112092564 -0.0049555220339323 46 43 38
-0.0563185477759748 -0.2859427823075368 -0.0046273793323265 84 77 71
-0.4658345665822461 0.7775235960745760 0.0696944553331139 88 75 69
-0.5078888294320705 0.2270505411648754 -0.0050345802104557 78 75 70
0.5500074248481222 -0.2856946332828536 -0.0045381382665398 83 78 74
0.5498073096443076 0.3569112829408772 -0.0045111384559922 72 67 63
0.6857090756569968 0.2266673584767596 -0.0046162660375544 68 63 59
-0.9523777552877344 -0.7774384176872412 0.1868906027729900 51 37 28
0.5509384681351417 -0.2863580023835156 -0.0036933714237622 83 78 74
-0.5749390951583687 -0.7775097973690813 0.1872257827199752 61 39 28
-1.1606048650755032 0.2275348982605903 -0.0056930572052065 107 102 98
-1.0755124640141691 -0.2858122508409779 -0.0045316483243185 74 69 65
-1.0070774301304688 0.3439926400109555 -0.0721690544134133 50 46 43
-0.4656710037876209 -0.2854384559453340 -0.0047069308528162 72 65 59
-1.1300318967717107 0.2250072942470353 -0.0054446563925717 82 78 77
-0.3215478163086411 -0.7773008801563382 0.1852594746045518 63 43 32
1.2032170500573283 0.7790190157668845 0.0681060719702745 44 31 25
-1.1173551140577658 0.2261108822117272 -0.0053860540427411 62 54 51
-0.5261239405243706 0.2753414344556017 -0.0040381369501153 78 73 67
0.6843821483731160 -0.2854045416341816 -0.0052326905920220 53 48 44
-0.0607748035091447 -0.8724139851269196 -0.0002032135372211 88 70 60
0.2458723509840996 -0.7774432864750990 0.1863980444181610 41 27 18
-1.0148553713327229 -0.2868689306432125 -0.0042997658708328 59 52 44
-0.5535045430277918 0.2258012965446714 -0.0046613523284558 49 46 41
-0.8726339250576244 0.7788286992188679 0.0659411961605903 58 47 43
-1.1462444826455769 0.3549009953247245 -0.0050844008155062 108 103 97
0.6878964619014856 0.2787108783554299 -0.0053647973681519 36 35 31
-1.0107034221622229 -0.2868255071319150 -0.0044948690788546 113 103 94
-0.5403820696377102 -0.7775273665973946 0.1868778829214722 64 42 31
-0.1558525287151706 -0.7789451551351384 0.1863152964910819 56 36 27
-1.0017307775248614 -0.6052732811311783 -0.0116153354879691 25 16 9
0.6073678568642140 0.2236488377697584 -0.0046304103229931 55 52 47
0.4767392672565794 -0.2878089292614088 -0.0046124315182975 46 41 35
0.0067817855720505 -0.7778582386589001 0.1867657176866851 47 33 24
1.0587231299738862 0.2242523799545270 -0.0054865591267677 65 58 52
0.3531948421250364 -0.7782451695947494 0.1863258080499433 46 24 11
-1.0885750703182204 0.7769039811529383 0.0660408376178803 65 54 48
-1.1622630807491576 0.3525816085022148 -0.0050727644869812 112 107 103
1.0776591881741879 0.2250637648046072 -0.0048400570048070 70 66 63
-1.0882820548591106 0.7756372637796537 0.0667993533044667 82 71 67
-0.4396016974642166 -0.6109170848043012 -0.0020716851613150 57 43 34
-0.8210554100610429 0.7741916810620192 0.0685591533015460 61 46 41
-1.1616620803378415 0.3515559610178984 -0.0035435992718759 114 109 105
-1.1878794255525271 -0.6108911507092890 -0.0036099930965084 65 52 46
0.1354714223719613 -0.8674493966661081 -0.0061020988143935 68 49 42
-1.0015564466824856 -0.7786444420691593 0.1867657823415345 55 37 27
1.2679903938425341 0.3517957326366857 -0.0083988098557776 62 58 55
0.7030531834779666 -0.8702239910875594 -0.0033745056964625 69 55 52
-0.8766139828710341 -0.7784961512696279 0.1866549211469114 57 39 27
-1.0318483383587633 -0.6111062113450463 -0.0039899327613884 47 38 33
-1.1413545938545975 0.2222663292807541 -0.0048692022073639 109 104 100
-1.0669823553089701 0.2203397916166924 -0.0038618962707215 77 70 64
-0.4710273072640832 -0.6101700130016283 -0.0041472688019633 73 60 52
0.1275972570543288 -0.2898994420282208 -0.0037504572309400 82 79 74
-0.6617049017926356 -0.7789330353164040 0.1869925732582254 52 33 26
-0.6333469312723622 0.2216823874842879 -0.0043157364524835 38 33 29
0.6359091345253671 -0.6109941832141816 -0.0046077559593542 53 42 38
0.5981593934692822 -0.2901482038087191 -0.0036430899526651 27 23 20
-0.6060709604217021 0.2201077541086849 -0.0033774428817097 79 75 72
-0.4089983610263257 0.7772788351247869 0.0638419772544184 62 44 40
0.6327467080547993 0.3431374964928928 -0.0047725544899893 68 63 59
-1.2440328416031301 -0.6126115539908287 -0.0034091375928660 52 45 37
0.4547162818236031 -0.7789370597033357 0.1866669121075185 34 19 14
0.6969741714956948 -0.2884363542704032 -0.0051849868822338 131 118 110
0.6332193433223373 0.3426901298455768 -0.0041070432559691 68 63 59
0.6661763201138348 -0.6113432479341848 -0.0056153413982892 70 59 53
1.0535626111795955 -0.2883587428240349 -0.0049212002244145 113 104 97
-0.5497456135865122 0.2203783576370158 -0.0057263349178148 74 69 65
-1.2142935484971669 -0.6135821337196716 -0.0052913907147489 43 32 28
1.2306875710963989 -0.2909275813641591 -0.0050324401766002 67 62 59
0.4912783624848647 -0.7790957993181853 0.1867417991832171 66 49 41
-1.2478294543605142 -0.2921006009181208 -0.0015772320522711 124 115 106
0.6972384268812439 -0.7787084071634560 0.1861949541973927 61 47 38
1.0586644560153218 0.3397405015048368 -0.0045002406295641 70 63 57
1.0891034344518145 -0.6127370261134633 -0.0053821968227396 48 33 26
-0.5536280172702975 -0.2917343331653829 -0.0028450966316536 49 41 39
1.1841495812116061 0.2196156367591713 -0.0061722619347905 67 62 58
0.6973981129970475 -0.7793890343603628 0.1864635693768478 61 47 38
-0.5286957000214494 -0.8863117900418346 0.0208108496474258 98 83 78
-0.6354473098510119 0.3385157510140784 -0.0047993542084500 76 72 69
0.6973981129970475 -0.7793890343603628 0.1864635693768478 61 47 38
-0.4477385785333464 0.2176047030120643 -0.0045322348731133 55 50 46
-0.6364167518221829 0.3392657862552222 -0.0046846507207990 66 63 58
1.0296086864070269 -0.7789653197353750 0.1860090025059632 52 37 30
-1.0085560915123111 -0.6150904027785499 -0.0050394888906374 94 80 71
1.0484994871881326 0.2179641590770634 -0.0057013200316921 80 70 60
-0.4696482513965022 0.3360905410355997 -0.0025788852108719 90 86 83
-0.6555863520758307 -0.6137493039329238 -0.0049632076205502 54 44 35
-0.7455585870507321 -0.7788730890532330 0.1862481043778245 63 48 41
-0.4563720873083859 0.3389556226638300 -0.0047386257801084 67 66 62
1.2375143940498872 -0.6144056371430308 -0.0061038981059377 84 67 57
-0.4354288205161788 0.3385314145731593 -0.0047314621694801 36 29 23
-1.2012552008396995 0.2210595825367840 -0.0081249089391408 67 64 59
-0.3911463739751969 -0.7795009780880283 0.1863714715502170 59 39 30
0.6322397626429743 -0.6168206438594572 -0.0045826570086093 57 46 40
0.5484859608663137 0.3391528376569145 -0.0060464315068930 73 68 64
1.1724674889822129 0.7846042501011137 0.0563191740909816 40 29 23
-1.0943558031363667 0.7820143992296202 0.0569067265457928 51 38 32
-1.5755367993177762 0.3897809296425225 -0.1797754330393066 36 31 27
0.8383308818730404 -0.7799739211406692 0.1866126280469191 36 22 13
0.6382617586643055 0.7770235230631610 0.0613030721199939 57 46 42
-1.2248689740602898 0.2111915430647502 -0.0038957116483431 45 38 32
0.5830917065722866 -0.6157496245543315 -0.0065193647288038 65 58 52
-1.2003732979827726 0.3379050594447254 -0.0054035778253709 97 92 88
-0.9182370652387476 -0.7805336455759356 0.1866461573544537 45 25 14
0.8073118757413636 0.7782872051590286 0.0601761693338449 56 41 34
0.3108394217652873 -0.7803997652227179 0.1866681740824785 36 19 9
-1.1675855135244462 0.3356099939214521 -0.0042880361036575 79 74 70
0.4684535469587774 -0.7807986477028005 0.1869271818402704 60 40 33
0.5926513634821632 0.2122325962868298 -0.0049960578927590 57 54 49
0.9036193876488435 -0.7798515121598031 0.1852120120101162 58 43 36
-1.1873931245760985 -0.6189833948915446 -0.0042036126076268 44 33 27
-0.7398245063740083 0.7782562631633929 0.0597841090897409 66 53 47
0.1271384415237807 0.2734442785790472 -0.0052777307500030 96 96 88
-0.5966558261812096 0.3353020643779229 -0.0048776007249284 56 52 49
-0.1835110937832207 0.8037601472643807 0.1863470137315739 49 30 23
-1.0092481990602948 -0.8774690418453063 -0.0044439337495684 101 81 70
1.0529404369821127 0.2123235673912987 -0.0045450721874912 99 90 81
-0.1862734973710765 0.7771641004326451 0.0607272252557527 70 56 53
-0.5370557981318748 0.3330969731006476 -0.0053312086035569 54 49 45
1.2269332580644743 0.2069380579742730 -0.0042914000037903 84 79 75
0.4739848749730289 0.3320746029618199 -0.0045484981863029 66 57 52
1.0600099868527735 -0.6184270112037882 -0.0047986778871445 86 68 58
-0.4275930534620968 -0.6199877805507048 -0.0067684668995852 98 82 69
1.1299675207079716 0.3314661386370935 -0.0047324368408634 76 75 71
-0.2083814529494191 -0.7811191480115807 0.1868615023911828 46 26 15
-1.1236588960423053 0.3332910602586804 -0.0044113981834750 92 89 84
0.4778108561071473 0.2116823510878562 -0.0055354521918944 71 67 66
0.6358815725947916 -0.7813770836965981 0.1867082113615232 52 37 30
0.5275461703700708 0.2107749615468062 -0.0055579403066545 53 48 44
-1.2158786222249729 -0.6220928634098946 -0.0045149432473386 52 39 31
1.1129914033989685 0.2090285904113504 -0.0043171373640527 82 77 73
-0.5622142449960013 0.3342414123258221 -0.0047284997250680 77 72 68
-0.6160501073666546 -0.7812781570715804 0.1854220837817521 43 26 18
-1.0409679929439764 -0.6209118248021129 -0.0053291103980552 68 55 49
-0.5738265361910269 -0.7814813942407834 0.1868214868096528 46 26 17
0.4892641688516876 0.2633007468960562 -0.0039869870585374 73 68 64
-1.1935009381006603 0.2091884356834009 -0.0046214322269052 86 81 77
-1.5734419112212643 0.4774894803577953 -0.1495105025801838 31 26 23
-0.6292599952836249 0.2098513541419840 -0.0047212299427688 64 59 55
-1.0407674558122135 -0.6209113300130880 -0.0055386485948224 70 61 56
0.5641855654294198 0.3331676142508975 -0.0052303859348951 40 35 31
0.0589343480540457 0.7772162879461509 0.0578309338642863 74 63 57
0.4896639248537462 0.2629426524240598 -0.0052704635045620 75 70 66
0.0626205931426674 -0.8965868391894971 0.0188911141050231 63 44 37
-0.4833636156770905 0.3293005754846142 -0.0047104681191517 94 89 85
-0.6044320109153430 0.2084892565998619 -0.0042278684038496 53 50 45
0.5417797313823424 0.3265657335710818 -0.0034832443797507 66 61 57
0.7958718573645208 0.7776194735420038 0.0579567441595841 66 55 51
0.6773151989388770 0.2100000792685802 -0.0047081740902787 41 38 33
0.6561918749166415 0.3268129263936854 -0.0041876902815786 45 40 36
0.1604565321194292 -0.7849058034939282 0.1873851669854376 41 21 12
-0.6615193686194437 -0.6235537529887368 -0.0048900465012582 47 34 26
-0.2106720522905559 0.7766424057283692 0.0565421782405007 73 62 58
-1.2201534232532052 0.2075028866440774 -0.0042656070174900 66 61 57
-1.1653971753155998 0.2091290399130995 -0.0043901070647740 66 61 57
-0.2106720522905559 0.7766424057283692 0.0565421782405007 73 62 58
-0.7839425076984279 -0.7830556362527510 0.1866195787458696 48 33 26
-0.5497528923529325 0.2086725297136366 -0.0050016584932708 80 77 72
-0.4653135034477234 0.2579202516367741 -0.0044134712946193 55 54 52
-0.7839425076984279 -0.7830556362527510 0.1866195787458696 48 33 26
0.5547305980212901 0.2057164071000436 -0.0060938738542291 57 54 49
-0.6947213539506247 -0.7835481022888332 0.1863301906372304 45 28 20
-1.2077845938047762 0.2058616698727005 -0.0054470315239780 74 69 65
-0.4759850651678800 -0.7826390126210238 0.1867871517072760 44 27 20
-1.1277899703316752 0.2037308497135565 -0.0043089188548808 82 81 79
1.0449276450085689 -0.8850115273791109 -0.0078652983959787 88 69 55
1.1728970121562079 0.7765185189096900 0.0568089322724715 51 40 34
-1.1035457542653460 0.2053195675494156 -0.0042609229720173 48 43 39
0.5105920660440759 -0.2923719915423114 -0.0027633034379878 74 69 65
-1.0241875156081715 -0.8884368756752851 -0.0045329291725790 66 48 38
-0.5061523918838090 0.3203475978130580 -0.0047713269769410 97 88 79
0.7509505429737361 -0.7838847443549034 0.1866015027822255 60 43 36
1.1307126726593666 -0.2895939636943111 -0.0047881580260430 60 57 52
1.1187821895729393 0.2548788988990382 -0.0050162933411542 65 61 58
0.1300074293806830 -0.8909788872747491 -0.0041277297419905 67 50 40
0.6751690938906976 0.7771715798534807 0.0561817799931183 64 51 45
1.0657639082011705 0.3204263563245388 -0.0059199125682252 72 68 65
0.4944441224865971 0.2538008327194629 -0.0049073357336754 59 54 50
0.6747750629252850 0.7753422851838930 0.0545020341234198 59 46 40
-1.2337453496639446 0.2027687507026286 -0.0045311831600028 65 60 57
-0.4506782554353986 -0.2942196855322919 0.0005777971134071 39 34 30
-0.4793958462801850 0.3187267728801904 -0.0054201870817707 86 82 79
-1.2240528026433588 0.2015537380431895 -0.0032014358953424 52 44 41
-1.1298220545383679 0.2521317623687409 -0.0042553272639250 80 76 73
-0.5849243623811448 0.3135920618984917 -0.0048503299217593 63 60 55
0.5502175440774478 -0.2925160439435894 -0.0047960284775612 90 85 81
-1.2355478423519672 0.7761293461767282 0.0556786382289590 76 63 57
0.5130380486266304 0.2044753802435448 -0.0055867017430893 79 74 70
0.5180219263149739 0.2523796804518937 -0.0056510978135987 54 49 45
0.5467968324177180 0.2022416646242266 -0.0043622359183627 77 72 68
1.1550232618514673 0.3121322271141512 -0.0046686981762948 68 64 61
1.0530466502171749 -0.8938293522057896 -0.0071458343615525 89 71 57
0.4781999980026239 0.2022725420105640 -0.0053245957368366 74 70 69
-0.1488396754156133 0.7778262561244990 0.0556154647212351 60 49 43
0.5587655507667382 0.3102390095947513 -0.0045483444851613 65 61 58
-0.4286685774989499 -0.7864965189735759 0.1889809887993387 50 30 21
-0.1484941005510375 0.7785768781780874 0.0547811117228120 70 57 51
-0.5494811689692104 0.2013509779305713 -0.0043407290038859 90 85 82
-0.6206001814274111 -0.2957867258277788 -0.0039799979728842 45 41 38
-0.0752282712112015 -0.7853360055707530 0.1876511894094898 51 34 26
0.4807284924827017 -0.8952799966277065 -0.0050795534665200 71 53 41
0.1999010182910837 0.7780926763133983 0.0541303025314752 63 50 44
-0.5453255792361079 0.3066760867674231 -0.0046400959258460 88 87 83
1.0463705694569578 -0.2944307346744048 -0.0063238032145028 94 81 73
1.0263296081055062 -0.7850731688399110 0.1866945527348091 33 22 18
-0.5382067592630978 0.2011884381733577 -0.0048311727489176 86 83 78
0.5740373086902110 -0.2990538384078330 -0.0036695271572727 57 56 54
-0.5450420776921429 0.3066682290217311 -0.0051967764330583 88 87 83
1.0488797897033557 -0.8945661379907480 -0.0081698675519654 76 57 42
-1.1607857097715617 0.1992536942189501 -0.0049618188865707 100 95 91
-0.0163093353370009 -0.2986794336498256 -0.0045841948299098 82 79 74
1.0423684915246783 0.3071218321708826 -0.0061919977261098 83 71 59
-1.1766701364911325 0.1984129310827112 -0.0039059055860081 79 75 72
-0.3682454543567412 -0.7854369547536364 0.1866260283442579 48 28 19
-1.2365070316741680 -0.2989622938567049 -0.0045929640046015 91 86 82
0.4949840580582748 -0.2993922299347662 -0.0051817798102689 40 35 31
0.4836935791577965 0.1985539760643799 -0.0048288212532017 65 64 60
-1.0444375878207475 0.2471097255710021 -0.0048065674187286 67 62 56
-1.0248419964293765 0.3035519149941714 -0.0047769679608553 107 98 93
0.5087617519789043 -0.2997603280923043 -0.0050830608754049 93 88 84
1.0887321413126323 0.3046823908791911 -0.0057735758201998 65 61 58
1.0590550193309503 -0.7616393683472591 0.1905552834981162 70 58 46
0.1093527106913016 -0.3007305800033107 -0.0049339243841925 71 67 64
0.5963120509386203 0.2469349610502196 -0.0046564360149774 56 51 47
0.4781157975101859 -0.3017410704150352 -0.0043184569117276 42 37 33
-0.2544949623993266 0.7770977986722115 0.0519215722659529 59 46 40
1.0380687839235916 -0.2962930898866138 -0.0100692263597773 68 57 51
0.0153806943427989 0.7790525757095600 0.0501402026804023 61 50 46
-0.4962436981172490 0.1945348414440090 -0.0052588027126429 84 79 73
-1.0416302950621705 0.3008866789621267 -0.0054161121250637 71 66 62
-0.5894668388083735 -0.3022083377167613 -0.0045330124369830 58 53 49
0.5933806662271075 0.1946577025054479 -0.0051787934507385 56 53 48
-1.0663046668908491 -0.3031728188455284 -0.0046341204626116 68 63 57
-0.5376092553966938 0.1915680451294379 -0.0048440303387154 73 70 65
-0.4598959233947505 0.7751345498148799 0.0525036835968242 57 46 40
-0.5517078688834749 0.3035612264789790 -0.0064172709903025 56 52 49
1.2305801748307152 0.1927008811309595 -0.0049880182961428 86 81 77
1.2592973013968840 0.3077292064169508 -0.0111320780671086 64 57 51
-0.4599774400171847 0.7767231223120016 0.0518233241715102 57 46 40
0.5733187133245162 0.2984346790858021 -0.0045698624455380 47 42 38
-1.1108414480528410 0.1924114980130638 -0.0074137741127476 39 34 30
-1.0283604964585802 0.1911551848600795 -0.0053148069744868 88 83 79
-0.6524841184681534 0.2968751386433451 -0.0048749448428758 80 76 73
-0.1511271608396949 0.7809816816135863 0.0484987287749846 57 44 38
1.0493843280341049 -0.3028099781317872 -0.0058007503720391 58 48 39
-0.6445160332606497 0.1909393220980440 -0.0051586438140521 40 35 31
0.6068129334840052 -0.7858385307423609 0.1864810376632235 54 37 27
-0.5792306015810813 0.2968574882205172 -0.0038564671534046 85 80 76
0.5490889300499258 -0.3061476047556604 -0.0047501017023068 94 89 85
0.6067162106292536 -0.7852877857323532 0.1862599061765627 54 37 27
1.2557495070632980 -0.2983352008538435 -0.0130555871064130 86 81 77
-0.4998933905316605 0.1909759848387055 -0.0046215774275822 99 96 91
-1.0138079138804119 0.7760267964541395 0.0507601316408051 62 48 45
0.6919959663321590 0.1905769199473817 -0.0050564953793193 84 79 75
-0.5481805067794100 -0.7862453893045733 0.1872387052204317 54 36 24
-1.0807770887561357 -0.9157682653926920 0.0137617931354518 62 45 37
0.0699290791496509 -0.3061259557551412 -0.0047639726194891 75 74 72
0.1223746774485229 0.7763144851930248 0.0501710588402891 49 36 30
-0.5484337954474021 -0.7866122886031517 0.1870947943112351 60 40 33
0.6923300272628580 0.1901006170801965 -0.0053599284612859 83 80 75
0.5939100140870780 -0.3051720842306289 -0.0057229403486579 66 62 59
0.1223746774485229 0.7763144851930248 0.0501710588402891 49 36 30
-0.5056418523525095 -0.7865895540175388 0.1868666217052984 39 21 11
0.1347498519757521 -0.9044367364758021 -0.0052067173686174 57 39 27
-1.1340074028364979 0.2381058491411928 -0.0028412400918313 65 61 58
0.6224333786297312 -0.7866063427775877 0.1869102407823442 34 20 11
-1.2346557337899164 0.1887929055268085 -0.0045484958822624 66 58 55
0.9522630831035572 0.7790334094621512 0.0470510961616087 52 41 35
-1.2356604726279865 0.1890556465272080 -0.0049747244577474 71 66 60
-0.5063052995501957 -0.3062362769552761 -0.0049453006265868 35 28 22
-0.4622192441290650 0.1889412793273355 -0.0049090869227456 79 74 70
0.1300181403909536 0.2900583731299872 -0.0018123296008970 137 137 137
-0.4630646207419542 0.1892929898684925 -0.0047139619910857 79 74 70
0.5873811282474829 -0.3063651263995704 -0.0053674081959076 78 74 71
1.0894044124912241 0.2934780893921748 -0.0048384737268768 61 56 53
1.0538651434834829 0.1885172108660088 -0.0041421476302181 98 89 82
0.4669546882436735 -0.9079018674695067 -0.0041420170930648 97 78 64
-1.1725645518703303 0.2902798032601558 -0.0047461412805180 90 86 83
1.0419688846902941 -0.3041232072772713 -0.0089742647828117 52 39 31
1.0634003820636977 -0.3079936351312008 -0.0041578370812501 74 69 65
0.3881139688613749 0.7787166445536267 0.0467852268056254 49 38 34
0.5698768402108225 0.2903678383670740 -0.0049063479283303 53 48 44
-0.5407347173220917 -0.7881114291259802 0.1870577479450741 52 32 21
0.5276266381019390 0.7757424978834055 0.0490889020190558 45 34 30
-1.1814798660026749 0.1939444073571370 -0.0074418874987137 74 69 65
-1.0092776475042291 -0.9095899460170483 -0.0038162673616563 80 62 50
0.4885395327193282 -0.7885961898140008 0.1866091963024461 41 23 13
-0.5828470621962873 -0.3090569655185534 -0.0044067394142490 41 36 32
1.0161910354561614 -0.7886243810567196 0.1873792648275026 35 21 12
-0.0490900338681113 -0.3082986339561493 -0.0050695681332313 83 78 74
-1.0433271072445025 -0.9071709911472268 -0.0041457585240436 62 49 43
0.5331778191098017 0.1859495968845429 -0.0047191046500307 62 58 55
-1.0420302771563037 0.2886693781382461 -0.0046510765330302 49 42 36
0.9173614357696461 0.7778853668335064 0.0462518791414413 60 45 42
0.9590292977562747 0.7796618845170605 0.0469889510708483 42 31 27
-0.5497643817202971 0.1852349705723408 -0.0047132999601096 96 92 89
1.1855652054685846 0.2888522954008482 -0.0048275237510957 68 63 59
-0.8880814633876363 -0.7887663065373706 0.1871348949334578 50 30 21
1.1216529444871139 0.7774519660851673 0.0483554747946076 51 40 36
1.0599695412158967 0.2377470032777305 -0.0051894668781204 58 55 50
-0.6036166954674380 -0.7890263243299116 0.1867623329306497 56 37 30
0.4799227526379147 0.1873962487894533 -0.0037201079585205 75 72 67
1.1910712758891251 0.2852446154993919 -0.0025942452123753 83 79 76
-0.2444825975712333 -0.7889258437631093 0.1861458342167328 65 45 38
-1.0042836781249298 0.2240702191997115 -0.0478908687467994 27 23 20
0.4720367248901171 0.2343184755990991 -0.0041606288256753 65 58 52
-0.2071340579592846 -0.7889281880334704 0.1867352463152978 56 38 28
0.6084391558330779 0.1831356305646816 -0.0049091634084202 52 48 45
0.3176305889226592 -0.7899986848647929 0.1875317808523915 57 37 28
0.5528830154694482 0.2336335620888252 -0.0043809787922818 49 44 40
-0.5857768890442561 0.1833088992237485 -0.0048564613922720 60 57 52
-0.5856991782620129 0.1835415478609262 -0.0047472483923285 60 57 52
0.6187761467908881 -0.7891535976733198 0.1875078460538155 50 33 25
-0.6287148522862428 0.2848472296537592 -0.0042109207176748 49 45 42
-1.1022550113614225 0.1852275472965367 -0.0076032234933857 49 44 40
-0.6824526034017726 -0.7641674124591891 0.1864562061002302 43 30 24
-1.0238372295804326 -0.9198335309230821 -0.0017087738621530 77 60 52
-0.6445217537532384 0.1823728870346378 -0.0045886728643309 43 38 34
0.7865370938988034 -0.7891166876777533 0.1870528728756493 48 28 19
-0.6407996994854012 0.1841278808454041 -0.0049829895376612 73 68 64
-0.6423791781364462 0.2831331219093417 -0.0046405804347036 81 77 74
0.8010943216419600 -0.7889014405476458 0.1866759680315343 55 38 30
-0.6391318508411759 0.2343723719161343 -0.0054383660476575 86 82 79
-1.0067964205100011 0.2133561394012602 -0.0397126204130925 51 47 44
-0.3396214351014146 0.7780033559013164 0.0458947585509256 58 45 39
1.0595708144744089 0.1797725619631464 -0.0049536569163809 70 63 57
-0.3396214351014146 0.7780033559013164 0.0458947585509256 58 45 39
-1.0682657476689146 -0.7904827360106637 0.1868513927043098 53 36 28
0.5301470421079898 0.1787939978077271 -0.0051860089466792 70 66 65
-0.4856099055991115 0.1788566956274271 -0.0050002453278721 94 89 85
-0.3928813206971792 -0.7898034614366086 0.1867541272211223 52 33 27
-0.0066176751796558 0.7780731577182471 0.0461016616585020 50 39 35
0.1783996649083769 -0.7626785665178420 0.1847518918272548 42 31 29
-0.1158056027776496 -0.7901862805453176 0.1868265611924945 48 29 22
-1.0821030827573273 0.1771018705421865 -0.0051742310883308 74 69 63
0.1358224520071455 -0.9221629678573193 -0.0046498067659270 56 38 26
0.0547482029510371 -0.7898468537883320 0.1864738995014597 57 37 28
-0.6575464609500351 0.1740845133553604 -0.0051036650355879 79 76 71
0.0301490588271838 0.7766923352227497 0.0472822349891917 49 40 35
0.1016617684982143 -0.7890859488544233 0.1867499280174999 58 39 33
-0.6238067728376471 0.2802399649425136 -0.0049413595660764 71 67 64
0.8320281891231405 -0.7900861129357053 0.1860352162090450 40 25 18
-1.0426255047068056 0.1768511285323226 -0.0036428509893822 82 77 71
-0.4629128996830714 0.1765353542814359 -0.0050309800190815 85 82 75
0.6133949678575888 0.7761564604693256 0.0471825734950708 50 39 35
-0.7862329786222702 -0.7901644719987767 0.1864133091895741 42 22 11
-1.1973493119078902 0.2257410559803079 -0.0046179418711607 76 71 67
0.8723646384081021 0.7766526117151498 0.0461290076264730 42 33 28
-1.1179589286239240 0.1739104201683671 -0.0043656053923271 87 83 80
1.0245848228690364 0.7776199236711979 0.0461733621528938 52 41 37
-0.6509255676840691 0.2747641599212480 -0.0037054567407881 56 51 47
-0.6034406390213393 0.1754019415624535 -0.0049884175816850 64 61 56
0.0803609056006940 -0.3088312139047363 -0.0052679571613626 73 69 66
0.5459035054892012 0.2249742125206790 -0.0043246053472922 77 72 68
-0.9944784737099885 -0.7680439328274167 0.1862446978458033 59 42 35
-1.1812019707496779 1.3399277352220313 -0.0048682032076434 33 32 30
0.6229447667883523 0.2733182056265151 -0.0029558776600222 48 44 41
-0.7446517539509189 -0.7900372933674533 0.1862801959321627 44 26 16
-0.5804700561133003 -0.7904669760536972 0.1866725659858492 44 24 13
-0.8987055859358835 -0.7675764039562668 0.1859976046224756 66 43 35
0.0139740346522472 1.3414379186485472 -0.0037547532147920 30 29 27
-1.0891501605477292 0.2268377801028211 -0.0058311486160578 66 61 57
0.0143432256423527 -0.7901605680463092 0.1869972700166092 49 34 27
1.0563806748198892 0.1744793941318720 -0.0041410161284574 98 91 83
-0.6347924408515894 0.2762464774324274 -0.0060929256124411 56 52 49
-0.0905237768362959 0.7787127474869624 0.0449159805505880 62 51 45
1.0830969474836112 0.2241026725702450 -0.0035644205475580 64 60 57
0.4728450299396215 0.2734442858363413 -0.0044689027462812 67 58 51
-1.0925813950309311 0.1741201072084750 -0.0048231714120574 66 62 59
-0.5458079091880336 0.1730653832845217 -0.0049342059935674 73 69 66
-1.0258294505880736 0.2737096976150066 -0.0046050994900208 77 68 61
0.5133341975129836 -0.7904211381003844 0.1861658245588969 57 39 29
-0.5273802750073499 0.1736123744113124 -0.0045266006292336 70 63 55
0.5135125403414706 -0.7909530223490234 0.1865570643804564 57 39 29
-0.4809401401455038 0.2733818395605411 -0.0045603119823291 75 72 67
0.5417084139670524 0.1716909721005340 -0.0046651364027611 92 89 84
-0.4982180161102079 1.3335580359802448 -0.0037992706673769 68 65 60
1.0411760525308063 0.1760261029690760 -0.0072551860327849 79 69 60
-0.6765729841486174 0.2677273078155014 -0.0007765800211550 71 71 69
-0.6466603338252837 -0.7906342830005970 0.1866750747588975 67 45 34
-0.0414032515306092 -0.7689978394957884 0.1870408745143787 61 39 28
-1.0386222681890920 0.1718767526877666 -0.0045574422037307 89 82 76
1.1715247235556736 1.3375119707601433 -0.0059258839097034 75 72 67
-1.0386565086721302 0.1720275675651584 -0.0050721808598917 93 86 80
0.4022515747164454 -0.7903934621434441 0.1875613860162271 30 19 13
0.5476682318359010 0.1704389343363479 -0.0046560322848799 76 73 68
0.5199809028481976 0.2675775844310371 -0.0038224099209669 70 65 61
0.5734615789911646 -0.7911345625287074 0.1867587737811913 60 43 36
0.5204597915480074 -0.7689073525691588 0.1865329688317747 59 40 34
1.1317304405835429 0.1699148704296396 -0.0044662913193672 74 73 69
0.6049065054187801 1.3329223191769322 -0.0051907395315286 104 99 95
0.5199881897593714 -0.7684838984646389 0.1853706132477224 59 40 34
1.2247201352963299 0.2698187826217904 -0.0052318978759021 45 40 36
1.2224876682222396 0.1718088507845681 -0.0059230030218358 69 64 60
0.1268285204337923 0.2199422005527656 -0.0047780472213065 103 98 94
1.1257053211959080 0.2682226385881544 -0.0053379699583800 74 70 67
0.2760233867244397 0.7767851741071591 0.0450371041800225 66 55 51
0.6460527849629363 1.3349607030740998 -0.0060509147940079 100 95 91
0.4673658989117637 0.1710865480852282 -0.0048325758637499 123 114 107
-0.4298454012737331 -0.7909764970825892 0.1861836836858036 72 52 41
-1.2456940622584514 0.2195183804808250 -0.0052373155533594 58 53 49
-0.4985790620865297 0.1692598575474426 -0.0052051982253361 96 91 85
0.5073019642839435 0.2665807991910638 -0.0045631636498885 52 47 43
-0.4298454012737331 -0.7909764970825892 0.1861836836858036 72 52 41
-0.3536834725552768 -0.7913949684623476 0.1864988657151427 56 41 34
-0.5715688068752549 0.1697922266720235 -0.0055877861789278 76 71 67
-0.4941473026097475 0.1684464754367676 -0.0051527844153000 71 64 58
0.5122163317876774 0.2208825316154845 -0.0045336875154389 88 84 81
-0.1605969126368554 -0.7918455893388764 0.1867782343510815 36 21 14
1.1134537790610830 0.2687209959036888 -0.0055951854850633 77 73 70
0.0063965888213707 1.3305654289829265 -0.0042690246881214 42 38 37
-0.4862903306609517 -0.7694391670465632 0.1872528127298865 67 45 34
-0.4946321224358877 0.1684300569514718 -0.0048662900067355 71 64 58
-0.4428783432287786 0.1679582776215021 -0.0051172334354544 87 78 71
0.3778837272204492 -0.7923753149342361 0.1860565992466499 42 23 9
-0.4349887095313232 0.2656934138158254 -0.0040959926382544 80 71 64
-0.4630014594676604 -0.7698633471516618 0.1866521004070049 69 51 41
-0.8459727084950696 0.7749968893431216 0.0450126837294504 73 60 54
0.4826489612539722 0.1672337024733495 -0.0043036377534281 65 62 57
0.6219324467863564 -0.7929703508788012 0.1869374494330403 35 16 9
-0.4626828058694499 -0.7698632641561661 0.1868430712176674 63 45 35
0.4831899578727239 0.1669056512010933 -0.0045459251034354 73 69 68
-0.2999958752736977 -0.7702788352126790 0.1882278819153546 60 43 35
0.7918119677270313 -0.7922023992067689 0.1879275480075023 49 29 18
-1.1419886524816294 0.2618708809205685 -0.0047755575108239 107 102 98
1.2180711447305681 -0.3115092043483265 -0.0041388482865373 70 65 61
0.9206559818263590 -0.7925224160515353 0.1866825556320194 61 43 33
-0.5743227719149462 1.3230124781547505 -0.0043451972688698 43 39 36
-1.2109936372435346 0.7761737276506100 0.0430132587064148 77 66 62
0.1088110860498583 1.3227219441795270 -0.0028702552384887 29 25 22
0.5055284495325947 -0.7694266380117138 0.1865388640895537 62 45 35
-0.9949240319693776 0.7758215757990570 0.0431265165262662 75 65 63
-0.6460060057474692 0.1647227636826664 -0.0042573919824166 61 58 53
1.0778979295459614 0.2172312396105562 -0.0036553295809761 75 71 68
0.4679089294459316 -0.3107535155129502 -0.0048593717113340 88 74 65
1.2200177894720750 0.1644354269808690 -0.0047136694145431 83 78 74
-0.9649629573426164 -0.7927156161229314 0.1869451553520761 35 21 12
1.0593382410322778 0.2584988196805887 -0.0042133820995333 66 61 55
-0.5613933609322278 0.7767712369725871 0.0430727737877101 68 54 51
0.6343460415014009 -0.3138874127552057 -0.0038014124495012 84 80 79
0.6651032261521089 -0.3114238245613346 -0.0048700936143990 43 38 34
-0.5412497680889000 -0.7925709534114797 0.1868018396005814 65 42 34
-0.4246396930023071 0.7746050177946018 0.0440672756481900 81 67 64
-0.3212806622863099 -0.7923970254903678 0.1866766904090134 62 44 32
1.0903608352282228 0.1614571706430749 -0.0057224689602783 68 63 59
-1.0254345410129859 -0.3116763719571728 -0.0047870186460974 79 74 68
-0.2225025568139674 -0.7918098634115877 0.1866669875479181 34 20 11
-0.6570644041933472 0.2155818009460761 -0.0049254286980111 84 81 76
-0.4725530008577296 0.2584154716683472 -0.0049294852172064 89 85 84
1.0649679689806171 -0.3124320429269048 -0.0048651151411077 96 91 87
-0.0830979247425097 -0.7928955005776459 0.1869523126913322 41 24 17
-1.0524360139587308 0.1613851392980743 -0.0046737231678938 77 70 62
0.2189527950984653 -0.7932199862313789 0.1864418942668467 40 22 12
-0.6570644041933472 0.2155818009460761 -0.0049254286980111 84 81 76
0.0779281520789953 0.7748089968164263 0.0442322472707432 59 49 47
0.0129925286179480 1.3206056137785571 -0.0047846359502129 32 31 27
-0.0456709849862310 -0.3153439173455362 -0.0043118702004164 51 48 43
0.5864043034205777 -0.7935002367642401 0.1883896891917385 38 21 13
0.4946714731899211 -0.3139623409682046 -0.0048330175061194 73 68 64
0.1239425379812576 0.7773255105796764 0.0421759998727527 63 52 48
-1.1618152652547302 0.2563945588488026 -0.0047466665314257 104 99 93
-1.0622606490229829 0.1600950459397557 -0.0051672829568348 90 85 79
0.5368088550554690 0.7762098372240628 0.0428078974667751 78 67 63
-1.1618152652547302 0.2563945588488026 -0.0047466665314257 104 99 93
1.0523125147275121 0.1594435901348680 -0.0049819945418635 99 90 81
0.9716052034183451 -0.7925959582585799 0.1867991746926068 44 27 19
0.5282052664131278 0.1564960758375487 -0.0042518307262834 47 46 44
0.1154316683756107 0.2554497947801324 -0.0045711967962084 82 79 74
-1.0459675005397440 1.3124670673651195 -0.0024654618962414 48 44 41
1.0495474253096078 0.2543897362708638 -0.0042570622361667 70 61 54
-0.1752322406163900 -0.7932174945371461 0.1868356669103050 35 17 7
1.0807611886967647 0.1589003221451630 -0.0056884337003046 81 76 72
0.5207608498805149 -0.3156910737869102 -0.0051899833588409 48 45 40
-1.0977242883500380 0.7760387065131646 0.0423218421175769 58 47 43
-0.1757753465302213 -0.7930983285216791 0.1867350999286793 36 19 9
1.1857310728290005 0.1567837877344707 -0.0046543104197247 36 33 28
-0.5140536740996797 1.3140330383842569 -0.0043706651194986 74 73 71
-1.0592211138601084 0.2545490224989291 -0.0040481025159479 76 69 63
-0.1415339685826714 -0.7940079463345369 0.1869780030475338 50 30 19
1.2004557341383262 0.1582162040508033 -0.0051923476314120 81 76 72
-0.5369543937039368 0.7760704624114977 0.0424913556142965 70 56 53
0.5787218526780548 0.2528474858390708 -0.0047503156033568 70 66 63
0.4825817386288943 0.1616835360675606 -0.0050771868514789 66 63 58
-1.1965796976311776 -0.3161923669218804 -0.0038399728946182 98 95 90
-0.5362212340594482 0.7749638113418429 0.0425309683881882 81 70 64
-0.5638807859486693 0.1556376516637505 -0.0047946608901571 98 91 85
-1.2453978899717906 0.2059642517466900 -0.0040725656989616 58 53 49
-0.4169369446833839 0.7760400202140374 0.0423774258801407 71 57 54
0.0427643835265279 -0.7933420517516385 0.1865566553663117 52 35 25
-1.1013305121741801 0.2514965133120499 -0.0048675569058102 80 76 73
0.1038577494873836 1.3131924490003108 -0.0048710040392013 56 55 53
-0.3434414574185395 0.7758958888366667 0.0428253023584493 67 54 48
-0.6239603976989401 -0.3147162294942532 -0.0047094518391870 71 67 64
1.2649188944226666 0.1665690032728746 -0.0109451090234431 60 57 52
-0.3435122057976566 0.7757054547233891 0.0421454400612587 74 60 57
1.2567744194449273 0.2549789775635999 -0.0088619491953102 81 76 70
0.4889703909737880 -0.7938880982948887 0.1865640821273924 60 40 29
-0.0501261835078827 -0.3150078142153434 -0.0043639224981563 88 85 80
0.7194257713094916 -0.7936324241147688 0.1864101430852564 60 40 31
0.5056244352659824 -0.7702184477416225 0.1867492988125582 66 46 37
-1.2242697945158287 0.2481672244020223 -0.0033469623182163 75 70 66
0.7194257713094916 -0.7936324241147688 0.1864101430852564 60 40 31
-0.1242260556350412 0.7752490476620422 0.0416584073885642 67 53 50
-0.4892256212507425 0.1537659636358286 -0.0048634648634408 81 76 72
0.5600905179314062 1.3123256443831857 -0.0050637910281058 48 44 41
0.7808709819228922 -0.7936848675657807 0.1866201979965762 41 24 16
0.5477837950165557 0.1494860944407445 -0.0035595084874061 74 71 66
-1.0719402042111434 -0.3180656938429867 -0.0032309441534294 59 54 50
0.8170671193058049 -0.7936451409204153 0.1866371080093291 37 23 14
-0.7058978261689380 -0.7715792052144598 0.1888992875420466 63 46 38
1.2378058811471351 0.2469476367015161 -0.0043234806949856 80 75 69
0.6361608561567094 1.3137460734526940 -0.0051400276777454 69 65 62
-0.6216670359576498 -0.7944254854734761 0.1866082800071337 36 17 11
-1.2495812472541779 -0.3181965800797067 -0.0047864304482011 102 95 87
-0.6670551238686850 0.1519280940575961 -0.0050815384283908 48 41 33
-0.5140330541823728 -0.7697396490738276 0.1860236572488611 48 31 24
-1.2495812472541779 -0.3181965800797067 -0.0047864304482011 102 95 87
-0.3593009841359000 -0.7708813369182949 0.1869298747956663 36 17 10
0.8509040755616623 0.7774781944566912 0.0417977159937533 62 51 47
-1.1357197077467516 0.2092565083364568 -0.0083086543221819 57 53 50
-1.0148094557796008 -0.3179045332173001 -0.0049170895008589 78 73 67
0.8859449391314819 0.7754620781632052 0.0420470012698610 56 45 41
0.4864058062693948 0.1519615137148620 -0.0055467579101407 68 63 59
0.0215314350051919 -0.7705219599765398 0.1859590174117847 30 15 8
0.0581887370957903 -0.3177161184591770 -0.0044099929327955 70 69 67
-1.1490930203467722 0.2433423438483052 -0.0047887527221138 48 43 37
1.0799202281745497 0.7770801088058967 0.0411168393314279 64 50 47
0.5059255717205087 0.2063179365872778 -0.0048542155683339 65 61 58
-1.1301921645402648 0.2434075428832932 -0.0049345699218451 87 83 82
1.2627268563782716 0.7765677277123112 0.0413044899997726 64 55 50
-0.5310637541951028 -0.3193015249727431 -0.0050727124515126 71 63 60
-1.1355151948026969 0.1493154749428824 -0.0037098769523952 84 79 76
-0.4277815172394795 0.2066251351008432 -0.0059657378517174 107 100 94
-0.7608206899883576 0.7721258027523918 0.0449103109502526 73 59 56
-0.0571310700710305 1.3113418320413366 -0.0025669151591433 38 33 27
0.5908147154133111 -0.3188613371381530 -0.0044528496675570 57 52 49
-0.5001797700516485 0.1491186537971568 -0.0048046242424695 97 92 88
0.1435072596932521 0.2443915599321310 -0.0049833431591702 62 55 49
-0.5242560572830525 0.2403124912544137 -0.0042730570345586 66 59 51
1.0546314021816403 0.1473631396464157 -0.0045640329939148 113 106 100
-0.5079997905034500 -0.7942098393873166 0.1867678992782111 62 42 31
-0.4731812210538969 0.2406384158140496 -0.0053759608104962 80 79 77
0.7989973796621405 -0.7716828042047363 0.1874433851731177 32 19 11
0.6041286820710060 0.1475152385713874 -0.0059208261631319 68 64 61
0.1025490980113249 -0.7944663913322175 0.1864281504878930 42 27 22
0.1078286860556712 0.2405486123447783 -0.0051748132543514 54 50 47
-0.2112449877932940 -0.7741850248380551 0.1915418647001408 45 26 19
-0.5430850370199707 0.2049145964494916 -0.0057347151346200 53 50 45
0.5004471792395712 -0.7949464640597899 0.1875995248487821 43 25 15
1.0749626501188450 0.1442396476164643 -0.0044394799193318 78 75 70
1.1036128193548849 0.7754505748875734 0.0408484464918604 51 37 34
-1.2434078557722774 0.1449325060404982 -0.0051319623091438 99 95 92
-1.2915318413082739 0.7734128539801086 0.0423261322771590 60 49 45
1.0667250433924111 0.2367456366785738 -0.0032120689320712 63 59 56
-0.6406731915663307 0.1436122936894935 -0.0042566667108884 39 34 30
-1.1003023443090214 0.2382201318136530 -0.0047244206145731 88 83 79
-0.5935238573468868 -0.7719397602762308 0.1876150210532339 38 25 19
0.1383206104494486 0.1433826106575337 -0.0047796531922102 60 56 53
-1.1098432194204571 -0.7945257608283640 0.1864813472055366 74 50 40
-1.0517862366415489 0.7755237517792646 0.0396864475739241 57 46 42
0.4781820623927855 0.1438935948610042 -0.0048643521690096 75 70 66
-0.7854847689779137 -0.7943116208154063 0.1867360689493324 64 46 36
-0.4283217413145845 0.2371807661447929 -0.0083260446888940 101 88 82
1.1706402801421762 0.1987210456139734 -0.0038789160084002 41 37 34
1.0911860797047435 0.1427552562735525 -0.0028655463456542 70 67 62
-0.5937270417213819 -0.7718929177953786 0.1869487523366174 38 19 12
-0.5929302608225476 -0.7941891193764641 0.1865643794381625 54 37 30
0.5549404769832074 0.1418619048317628 -0.0039871987975796 54 51 46
-0.5186060705641717 0.2350446512532474 -0.0046587537302702 93 90 85
1.1706402801421762 0.1987210456139734 -0.0038789160084002 41 37 34
1.0805494174476913 0.1419761229941532 -0.0049263105455497 63 60 55
1.1864136785527282 0.1419744146791356 -0.0054300148412052 82 77 73
0.4430946023655956 -0.7956684039631834 0.1865690437274111 51 34 24
-0.4625242467293793 0.1963540124115845 -0.0034457540147503 70 66 63
0.5167927214591118 1.3005465378922429 -0.0042235146067412 74 71 66
0.4949066703611017 -0.7951803320276916 0.1862983873734464 46 24 11
-0.6559309208223580 0.2325845852446017 -0.0046439191853930 69 66 61
-1.0951886060682861 0.1444059494660426 -0.0090758641667096 83 78 74
0.1265146379721472 0.2312138322464679 -0.0047460928759891 115 110 106
-0.0293587724047410 -0.7724404540086531 0.1871705766206052 64 42 29
-0.6709311189639170 -0.7953636642603978 0.1865956424444396 65 45 38
0.5725551811956697 0.1393405607642412 -0.0029092525709961 51 48 43
-1.0105585119076719 -0.3186883787657802 -0.0052718832911662 116 106 96
0.9327336322626247 -0.7725280674207464 0.1873975391310056 44 24 15
0.5465076957376479 0.1366734722739518 -0.0032398128769538 71 68 63
-1.2236091852892035 0.7716269914749939 0.0416978777117570 56 45 41
1.1792572829118846 -0.3199164372849660 -0.0046705046641163 62 58 55
0.0701948699166404 -0.7958438145839049 0.1861640978528894 46 26 15
-0.5880879248893054 0.2283707167694335 -0.0049216474942821 84 79 75
-1.0415840058015340 0.1395473361286032 -0.0047690611277367 78 71 65
0.0704633646495443 -0.7964042299825616 0.1863042031528853 46 26 15
-0.6172427512892165 -0.7727372892940479 0.1866691981623761 65 45 36
0.1326595021279444 0.1380079391675608 -0.0044857435962619 40 39 34
-0.5126944319911277 -0.3228055873539803 -0.0036735945326407 52 47 43
-0.8125547693575520 0.7721868998846192 0.0410211526921836 60 45 40
0.4654568694895943 -0.7963872844169202 0.1867703889467686 40 20 11
-1.0807073607280571 -0.7746826957171553 0.1870647820954433 62 42 33
-1.1906013924371546 0.1378244060809502 -0.0046408971352515 60 53 47
-1.1489709305430116 0.1375399049850654 -0.0044207270891569 116 111 107
-1.1257836208932532 1.3045180988669725 -0.0079168522082485 77 73 70
0.5265846719026271 0.1974697922597121 -0.0043618142408683 51 46 42
-1.0000820309533249 -0.7742343146955147 0.1870169361793839 38 21 13
0.1392771442758348 0.1371377371077394 -0.0046762354168742 37 36 32
0.7958656042346185 -0.7962448231068473 0.1870821198389994 57 37 26
0.4678920628433977 0.2276543164682841 -0.0048562368363484 96 86 76
0.6068665590351111 0.1366170448848284 -0.0046623241535914 51 46 42
-0.4002720120648006 0.7732383906002940 0.0402265352962620 67 56 50
-1.0000029318703338 -0.7741928659685964 0.1865584494324183 38 18 7
-0.5722959998476671 0.1368863706966420 -0.0043986905785678 66 62 59
-0.7024725873634993 -0.7962782225215936 0.1867092951358432 48 25 17
0.2743518692291468 -0.7973339253228278 0.1867493968439031 45 26 19
0.5205864320508427 -0.7755186884160850 0.1876199308857027 50 30 19
-0.4235648406860468 0.2274927607189420 -0.0087547539140974 39 32 26
1.0773266234938537 0.1363595414416456 -0.0058318387635632 73 68 64
0.6380152522244587 -0.7971051526846987 0.1871199504921985 37 20 12
-1.0301665382097964 1.2963428912962633 -0.0048083802288010 69 65 62
0.5656005191018948 0.2223875597252525 -0.0050312016877369 59 56 51
-0.8007880133336615 -0.7967696223624126 0.1863782637679523 47 28 21
0.5348310819303290 -0.7749276023260160 0.1864662064422864 40 22 10
1.0486619838971907 0.1348728755561935 -0.0049141726991860 114 104 95
-0.6055519199447342 1.2956313039509006 -0.0050803529186853 91 86 82
1.0614344228732968 0.1350144878501806 -0.0049120274833429 109 102 96
0.5663915173323908 0.2223706409207221 -0.0043821457559643 59 56 51
-0.5999580493668314 -0.7974616968424763 0.1870193846053943 43 29 20
-0.5000909259019358 -0.7750442558391685 0.1869643511068926 43 23 14
1.2584918241249585 0.1395597604157572 -0.0090685255728447 60 55 49
-0.5430800616471554 -0.7969142512184965 0.1870327720623397 50 31 24
-0.6403072943663554 0.1941667901151784 -0.0046186581765565 86 83 78
-0.5430800616471554 -0.7969142512184965 0.1870327720623397 50 31 24
0.0016432305042500 1.2945430621691145 -0.0048761151394394 41 36 33
0.4772861831755563 0.1337642344305977 -0.0053045826505724 77 73 70
-1.0381734753409002 0.2225231301576742 -0.0044308177653364 89 84 78
-0.3071384633345618 -0.7962533253645532 0.1861868885440234 47 27 16
-1.0973590057874469 0.7731270260282016 0.0392306491026008 54 44 42
0.4777288013548759 0.1339559388529533 -0.0042205380472218 77 73 70
0.2907303845221810 -0.7755497096835912 0.1866913091671861 40 20 9
0.7433446482184274 -0.7973176077082847 0.1868300061126757 45 25 16
1.0462469377950985 1.2924729641771631 -0.0033992118525791 54 50 41
0.7427877522292474 -0.7973085762368755 0.1865319366343774 47 28 21
1.0351809463465824 -0.7750175751341346 0.1862067819859677 51 34 24
-1.0896535745682010 0.1367946068909168 -0.0060171835844610 49 44 38
0.8188737556244851 -0.7975493824320823 0.1868876286569746 51 37 28
0.1341135234793857 0.2218741740415700 -0.0047501209352807 74 70 67
-0.4756719686917006 0.1936393557703359 -0.0048730269548271 81 80 78
-1.0281750346414233 0.1333064487647907 -0.0051639350535417 92 85 79
0.8188737556244851 -0.7975493824320823 0.1868876286569746 51 37 28
