ply
format ascii 1.0
element vertex 705
property double x
property double y
property double z
property uchar red
property uchar green
property uchar blue
end_header
0.1993476144512709 -0.7832235554377758 0.0978307202911555 58 41 34
-0.1115552002046173 -0.7719178678927109 0.1116434384595942 49 34 27
-0.1128277609949052 -0.7722233632590049 0.1082664218917699 49 34 27
-0.5431895973867451 -0.7962858300778194 0.1943401973768660 16 11 7
1.2225627084792219 -0.6932197190225164 0.0186170055893289 98 78 69
-0.4999716172605017 0.2623645315070319 -0.0052910084088242 78 75 70
0.4924183410626677 -0.6357662141051268 -0.0146579201646771 57 48 41
0.6075059270074991 -1.2501480861276768 -0.0072119122967563 82 78 75
0.5844628712202914 -0.7385494865680312 0.0497790540075840 32 28 25
1.2254312974477160 -0.3798012723767868 -0.0044435919444302 68 64 61
1.1073735364004322 -0.5881475186942229 -0.0018125292081956 29 28 26
-0.5438824793604932 1.2421725008653997 -0.0048980854787213 36 32 29
-1.1206421518959688 0.6052648700041170 -0.0047374314306553 21 17 14
-0.0817950079147391 0.8338730222879767 0.1820570834942580 122 99 93
0.2291381244626418 0.8352528479435499 0.1667626410203997 80 52 40
-0.0820952653509454 0.8332399895635096 0.1817588910729095 86 67 60
-0.5897711271800762 0.3442015736318542 -0.0048398229006771 74 70 67
-0.6571459664942634 0.3940674024303480 -0.0054072777375527 59 54 48
-0.6848202684060083 -0.7555431002361723 0.1635235463345016 34 21 15
-1.1780106406714925 -0.6529513240570967 0.0040451188532153 54 40 37
-0.4476110254204843 0.2645054986134526 -0.0056372977909722 51 47 44
-0.5198858570478129 -0.8258220380887008 0.1869045902626035 21 14 8
0.2523505544093781 0.8368714048316670 0.1612145598244883 21 16 13
-0.5714232526621255 1.0553275979322132 -0.0058329207655158 44 41 36
-0.5018140050012230 -0.2652409355110285 -0.0042141598122100 32 28 25
-0.0256384437958244 0.8326698992372024 0.1835253029630808 117 97 88
-0.5029376346997716 -0.2729411188037849 -0.0060736629229810 34 30 27
-0.4317921796447039 0.2913752509784324 -0.0045872731138920 85 78 72
0.4850235112455853 0.2961092199770224 -0.0043638782441554 43 39 36
-0.0049494788481282 0.8266638747084549 0.1834104269708329 102 83 76
1.1417837159381199 -0.7578968769255652 0.1814929206714469 113 90 82
-1.1583136206779887 0.2352704414502256 -0.0039811417211992 87 84 77
-0.5592971782638242 1.0730871437951293 -0.0047984567079487 35 31 28
1.0482982346237673 -0.0908741716003558 -0.0050404533540839 99 92 84
-0.8655454688178641 -0.7311825941868597 0.0305247371671961 61 51 42
0.6804382139850152 -0.8279596737716823 0.1854829561499485 23 15 12
0.6897943091447016 -0.4920431568230671 -0.0049438809040793 51 47 44
-0.6631410365905774 0.4995316148035752 -0.0051007144609802 58 50 47
-0.5903542027475459 -0.7786489901918291 0.0864423342010032 60 47 41
-0.8257460007618842 -0.7249390428606988 0.0110476641891269 31 20 16
0.3740686393381329 0.8323552042365712 0.1803914594223069 25 17 14
-0.4823720205036487 0.4042565928991415 -0.0052561449627130 69 65 62
-0.4113132012352986 -0.7575809013022788 0.1789167623355364 25 20 17
1.1186393864344863 -0.0885585237683880 -0.0026320332062731 33 29 28
0.6125948750497042 -0.3911116000555815 -0.0052127102689323 90 86 83
-0.6032486731514618 -0.0947631030912365 -0.0041967407878689 71 67 64
0.0666326497604401 0.8352874532494647 0.1630289350642902 71 49 38
0.6723795932862513 0.4930915492094168 -0.0052492805741687 58 54 51
-0.5930033769114202 0.5079203145527290 -0.0051924952680204 39 35 32
0.9914960906988034 -0.7256043576324449 0.0260559265812612 25 16 11
0.0657731569309409 -0.5684334301240785 -0.0047134669327111 57 52 49
1.0900173123751202 -0.0397257246037743 -0.0066800169518243 34 30 27
-1.1229510252359427 0.3047654856946740 -0.0036990508325943 81 77 74
-0.4646356309444677 -0.1668981042768153 -0.0043850233262624 76 72 69
0.1154603767489465 0.8358945711711943 0.1767593603952394 49 32 25
-0.4877263604167058 1.3478248461223401 -0.0049335273126253 24 20 17
-0.0339709455935505 0.1263444151969167 -0.0047984503361175 22 21 19
-0.5952206620666636 0.5359393353095855 -0.0050295422808494 36 32 29
-0.5089815205233624 1.1416882787054436 -0.0052627639871166 65 62 57
-1.2514890584148453 0.4132493017784608 -0.0074808693180019 91 86 83
0.0907837918825795 0.9398230975424102 -0.0035050605676984 20 19 17
0.5667567711602690 -0.2994780206281827 -0.0059546155537036 58 54 51
-0.4680906406453493 1.3545391914514029 -0.0045995625399510 60 56 53
-0.4864864917397488 -0.1077723639697228 -0.0047054414462214 51 47 44
-0.0484409012007987 1.0583321803661219 -0.0047637217398096 65 60 57
-0.6521720107898215 -0.7264257544383589 -0.0035977425592099 57 46 40
-0.0378334982304214 0.1654815086570286 -0.0041884965266089 32 32 32
0.6992266554172019 -0.7568267679185836 0.1578501164285586 22 13 8
-1.0388642586951828 0.3003291754758222 -0.0055952569159863 49 44 38
-0.0372762695701013 0.1818841499947178 -0.0032842766432979 32 30 31
-0.0270826241104868 0.1752783362692306 -0.0050998269887318 35 35 35
-0.6520088642051776 0.8306571679238037 0.1842648764600017 24 16 14
-0.6520088642051776 0.8306571679238037 0.1842648764600017 24 16 14
0.0802104901475068 -1.2161742688600254 -0.0054772186444736 72 71 69
-0.5811806086806235 -0.0160115933670425 -0.0050726936845376 40 36 33
-0.6232389873419987 0.0206027207247958 -0.0048934280631981 73 69 66
0.5976052957322044 0.3937223162691913 -0.0041267997355557 40 36 33
0.4986727912868196 0.4676700449365097 -0.0047827495872170 59 55 52
-0.5538841396760881 1.2354907639412982 -0.0046580258584433 63 59 58
-0.5377674978809851 1.2284215474947726 -0.0044348510240783 50 46 45
-0.4600359890113664 1.1731719906795963 -0.0054995967472055 47 43 40
-0.4689051485316295 0.5283925221360261 -0.0051235146177385 33 29 26
-1.0546725020780803 0.9183904639195160 0.0189621039362408 43 26 19
0.0570600308100958 -0.7591487478111251 0.1839722288939417 21 13 11
0.2820310515011663 0.8696843599585700 0.0156491949409820 21 16 13
-0.5692586210262416 0.6224548419176622 -0.0044895700980552 29 21 18
-0.6092055711351914 0.0558623930015733 -0.0052328768371892 69 65 62
-0.6650133204115318 0.1189107699305742 -0.0050187634981884 47 44 39
-0.4724655020112262 -0.0130226971650478 -0.0050508554282353 54 49 45
-0.0420745690217838 0.2866237771313976 -0.0053631711554646 71 70 66
-0.4565989098713568 -0.0146096380996465 -0.0052877189582581 57 50 44
-0.4860241503802412 -1.2429058832781192 -0.0064846089527580 90 87 82
0.0016348699324430 0.2823016333046216 -0.0046505553600369 54 50 49
-0.4668291962495689 0.0174659615574730 -0.0047445821095947 73 70 65
-1.1933353523686372 -0.6234377580739445 -0.0050354221040161 23 22 20
0.2457005814771193 0.8375229223623650 0.1759323027475168 29 20 15
-1.1422597245833830 -0.1647733425233044 -0.0049790141147379 87 83 80
0.2735238923626013 -0.7577792043052265 0.1702221534650291 49 34 27
0.2735238923626013 -0.7577792043052265 0.1702221534650291 49 34 27
-1.2090907397308006 -0.0806418955540334 -0.0047374255830320 90 87 82
-1.0738296098459290 0.4999501848186138 -0.0054242494036558 41 36 32
0.4727663688624544 -1.1325705958997172 -0.0031224744864526 52 47 43
-1.1868249625197653 -0.0813554061215084 -0.0044513030567447 78 74 71
0.0070139722579405 0.3928800272863138 -0.0046338545727296 50 46 43
-0.5655688865364322 1.3182700641613838 -0.0026782982164225 36 32 29
-0.0007705335054643 0.2682057914669312 -0.0041258951941103 50 46 43
1.2028229251922662 -0.4701921312921608 -0.0043066288856533 68 64 61
0.0514318124473651 0.3646603405289110 -0.0049847731781267 63 59 56
-0.4632896434045747 0.0809676752080943 -0.0051395822096888 87 84 79
0.6740786314106129 -1.2369991496911872 -0.0041370080740257 33 29 28
0.5175195868901958 -0.0875462117859243 -0.0050121144362101 74 70 67
0.5801712855456734 -0.2974639172054282 -0.0047617122456217 31 28 23
0.0062595461352330 0.4203807021058643 -0.0053929650702307 52 48 47
-0.0280405593651898 0.4507926567296600 -0.0050413971414690 65 61 58
-0.4673531391759640 1.2759220983376371 -0.0049553363526727 63 59 56
-0.5247047994767136 -0.5066574432918993 -0.0051565864886725 47 44 39
0.3338127690148199 0.8370995161619934 0.1703282555841953 68 48 41
-1.1611448353515932 -0.0338302536144048 -0.0064270263838462 61 57 54
0.5195722903318492 -0.6189465118854566 -0.0038104990035927 65 56 51
-0.6564249711185410 0.9245367913028423 -0.0047733631905583 29 25 26
-0.0307790790044839 0.4756461240716370 -0.0045163437083058 73 69 66
0.3285707820832848 0.8382711712621437 0.1595359255431145 22 11 7
0.4646776816659710 -1.2067433055521448 -0.0081188300131129 107 94 85
-0.0526532938817278 0.4897567249676670 -0.0045897545959138 80 75 72
-1.1129176680165402 -0.0492300531121712 -0.0045778511499713 61 57 54
-0.6484492615764692 0.9312920570171818 -0.0047866614519050 63 44 37
0.3782777536485568 0.8392346006409088 0.1599596900776806 26 15 11
0.6231273648555812 -0.6557747186466849 0.0139922730003824 92 72 61
-1.1098872225371066 -0.0124625783320317 -0.0042488994561461 85 81 78
0.4677871698341971 -1.2820709739442333 -0.0882310151848908 38 33 27
0.8992122665859728 -0.7790375914608780 0.0725010970181357 47 36 34
-1.1917982723961813 0.0555892559969871 -0.0054078594829672 87 84 79
0.5956460510446340 -0.6451615049804792 -0.0057670854745400 24 19 16
1.0606541113761010 0.2376704730093858 -0.0047537879529308 45 40 37
-1.0385623968698301 0.0736723748384809 -0.0047293882153555 52 47 41
-0.3091364126164946 0.7784062581086084 0.1863066029192550 23 16 10
-1.1338777029543399 0.0514871639909426 -0.0045739147530706 92 89 84
-0.5336226185166851 0.2003245432392630 -0.0036612266155538 67 62 58
-0.6019999342928237 -0.3321718521281673 -0.0058337281616932 61 57 54
-0.5648348613627094 0.2222917840934958 -0.0046189624874239 93 88 84
0.5014332174902338 0.8266259764162043 0.1872443392796913 19 16 11
1.0642155797178252 -0.2955088682157020 -0.0053382898757370 78 75 70
0.4756261228000687 0.8345649627687598 0.1727681967625379 23 15 12
-1.0499909821194320 0.0066751812269938 -0.0050592476302631 88 83 77
0.0962205926346036 0.4190795681880696 -0.0048121249131237 49 45 42
-1.0361778116672373 0.6034175443381727 -0.0049132449582788 57 48 41
-0.4441067209673472 0.1759665208625453 -0.0047492385176423 45 40 34
-1.0625887642916885 0.1336096945055424 -0.0037078515743660 55 50 44
0.3347258561235210 0.8684516917765503 0.0262868517462874 71 60 54
1.1445987632280679 -0.3285486109244434 -0.0059674324253590 39 35 32
0.1071224510906079 0.4288587443684558 -0.0050087819685643 49 45 42
-1.0148241729086021 0.8271859557260917 0.1852345015049985 102 87 82
0.0388148612811810 0.4865965511197868 -0.0048519854169126 76 72 71
0.4905608386405378 0.1681090828969971 -0.0044597976151690 63 59 56
-0.6338388976415639 0.9841880423332726 -0.0052632394930187 55 46 39
-0.4865690212125288 -0.2474544469224899 -0.0040218913806382 37 33 30
0.0302712561446749 0.5156965923726529 0.0016753222524857 73 69 66
0.0619103185579075 0.4950454824585886 -0.0045344626533227 76 72 69
-0.2024955917160761 0.8355332651752329 0.1594082128495841 21 16 13
-0.5660909010013219 0.9050340025011967 0.0094594892536776 20 12 9
0.0140151502648717 0.3871079908111876 -0.0047388686644857 75 71 70
-1.0584600952385264 -0.2096072916474536 -0.0062310059374366 50 47 42
0.0245415432663208 0.4901850849258454 -0.0066546915580272 76 72 69
-1.3982079481175613 0.1342833789687021 0.3355872778719156 57 53 50
0.4831092220962033 0.1533424891239192 -0.0046880772484720 63 59 56
0.4900558729923936 0.2628383829228167 -0.0050672638911248 67 63 60
0.8862905752988653 -0.7569540315424752 0.1596062587452471 31 23 20
-0.1477429767226604 0.8347125872218629 0.1561077021534159 20 16 15
-0.1482370404024455 0.8352680087816339 0.1547390678233608 23 15 12
-0.5306990763752828 1.1002165058864044 -0.0045281996738224 59 56 51
-0.5264828136954319 0.9965186637087231 -0.0049518253088541 21 17 14
-0.5294991648879519 1.1241614572843506 -0.0050178048553830 61 57 54
0.0962176240376057 0.8345685609036921 0.1729637438861765 84 58 45
-0.6092166797273397 1.2140718356686919 -0.0046851713131752 33 30 25
1.1248949539481101 -0.0399313232687139 -0.0040732900989899 32 28 25
-1.1122957522281742 0.2967652206048187 -0.0047510666881070 45 41 38
0.0422675976776197 0.9405548766886569 -0.0037951432962890 19 14 11
0.4235580283357567 0.8371287357649131 0.1613435091691073 20 16 15
0.4399008567201960 0.8387881446952299 0.1645477754866568 22 15 9
0.4397355954753562 0.8379147699058667 0.1632020322320991 24 14 12
0.4740979376516696 0.8383236557643852 0.1614544416006845 21 14 8
-0.6169850683733420 -0.7542290132538190 0.1736598938282830 27 23 22
-0.5658197020503137 1.0436830392034582 -0.0053095801389469 50 45 41
-0.1330087477574402 -0.7597012734497165 0.1605790254011691 24 20 17
-0.2864380425697948 -0.7390993376007174 0.0310720818018194 61 42 35
0.1323209125782881 0.8135289361461715 0.0452036663849470 14 13 11
-0.4576734212834805 -0.2461852303209221 -0.0067570187692551 37 33 30
0.6035736235898069 -0.7581125485259813 0.1601590356638826 31 24 18
-0.6187724132992747 0.7675795577238611 0.1879596665746733 21 16 13
-0.5585565242530777 -0.0909469003561784 -0.0069272612117183 76 72 69
-0.5471418431828083 -0.7795271731885172 0.0891879673669282 65 50 45
0.2871354377373968 0.8320721863253280 0.1272840008263118 53 36 29
-0.7099126046739569 -0.7376136560410795 0.0336267572377747 64 47 40
0.6942010068776285 -0.7588531946601198 0.1644545753792822 26 22 19
-0.7127751454468348 -0.7398491886710865 0.0303486799473233 69 56 48
-0.5305307565562953 1.1630450937745105 -0.0046498941830658 55 51 48
0.5274302302518342 0.4402550014198673 -0.0046591580873059 55 51 48
0.5953248475544839 0.8212170291684638 0.1885087259239965 19 11 9
-0.6048879383811223 -0.6949447892772529 0.0207685245448293 97 78 72
0.1753909839020472 -0.7545105632391450 0.1672785100962799 24 16 14
-1.1295688207804235 0.4465659028080977 -0.0046323226935741 55 50 47
-1.2282435246916392 0.0309190230991414 -0.0038089448357094 39 36 31
0.2232761625019123 -0.7634471065716356 0.1570078301804612 21 16 13
0.3586386834757941 0.8378590037290548 0.1632144371589674 25 16 9
-0.5282806553564117 1.3725468182100826 -0.0058307537004402 35 31 28
1.0691824414184354 -1.0848073755151626 -0.0032604966200074 92 85 79
0.9146031916690709 -0.7627723370690294 0.1653983372027147 26 18 16
-0.5010692854417498 0.6350970046413388 0.0014649249333875 59 46 38
0.0068658568391667 0.1711234273425724 -0.0044295163116383 37 36 34
0.6783218176684728 -0.8237172773136739 0.0390730104741878 50 39 35
-0.0061185496180366 0.3203199461202841 -0.0049128187606984 48 44 41
0.2094072019739774 -0.7397600559933152 0.0296570819527679 60 45 38
0.5740190972095077 0.8372638359167167 0.1664421331537979 22 14 11
-1.0733252482228191 0.1705255941259599 -0.0044901522809293 80 75 69
0.4770168391158174 -1.3674716627599703 -0.0052904755306049 59 55 52
0.5436234709808552 -1.3970852528024926 -0.0029937606071283 78 75 70
-0.4259128154114282 0.6185046112380194 -0.0008300787110549 70 70 70
-1.1548914249118485 -0.5596833993955243 -0.0075254822019365 68 63 59
-0.6561229873230756 0.3556262477939763 -0.0045557172372364 46 41 37
1.1227139042653360 -0.2465166073739405 -0.0031126405343090 41 37 36
-0.5252177538928963 -0.1118046116967727 -0.0055533482935285 67 63 60
0.5080372268615622 -1.1804047483034197 -0.0052984587339514 40 36 35
0.0834373232089759 -0.4807614862085868 -0.0031168311532191 69 68 66
-0.2925208763063114 0.7669402898801654 0.0399794783933226 60 45 38
0.5743083862033513 0.2554808295908896 -0.0019087324831792 49 45 42
0.5305608069350998 -0.7179231596358333 0.0359059620294735 15 13 14
0.1157150677789240 -0.7818248423558264 0.1001040006169501 46 36 27
-1.0210001665369217 -0.5341777751178441 -0.0073309761217712 52 47 43
-1.1737435798190112 -0.7224604212222852 -0.0223725293208366 99 82 75
0.5297400680453577 -0.2683302717873816 -0.0032562255654176 66 62 59
1.1726915047024427 0.1734012556792426 -0.0035489658200377 35 31 28
1.1348635043002204 -0.4003954513586763 -0.0061571221302753 76 72 69
-0.0118193285952725 0.4467396608483117 -0.0004086406193764 43 39 36
-0.6152104662076129 -0.7904093041318691 0.1914187415644627 20 15 12
-0.0136353098904358 0.2009712006034561 -0.0068475029871154 22 21 19
1.1099657412601931 -0.7048115738150361 0.0446839792597138 24 20 19
-0.4838848865558700 -0.6665710910578481 0.0357465245989340 102 85 77
0.0941371793805359 0.8300260421053955 0.1764494758516346 124 104 97
0.0955652279601493 0.8300476815929517 0.1762737265877138 124 104 97
-0.6455029348409382 1.2159794024714898 -0.0076172125222715 38 34 31
-0.3776327193300605 -0.7902605301407639 0.1825814790129178 20 15 12
0.8728994356280494 -0.7513839784481465 0.1559484527193165 80 62 58
0.4108651235050843 -0.7452246040736518 0.1616769003883037 71 56 49
-1.0831061905912687 0.3262686328977921 -0.0048200113994582 93 88 84
-0.5830983777797729 -0.4628463109431680 -0.0042123889722429 57 53 50
-1.0768304862395286 -0.7595342105277124 0.1834865738043281 117 100 92
-1.0772524028719668 -0.7583992588504077 0.1831751314448824 117 100 92
0.6009114323929819 -0.3021519254618604 -0.0043408682642142 57 53 52
-0.5018960606540412 -1.1924650476871415 -0.0060154101382714 82 78 75
-0.5592134256528096 -0.4594251001251501 -0.0042836568900071 64 60 57
-1.0985075787745813 -0.7552600961672874 0.0325401085307500 27 22 18
0.0419490483514891 0.5088545345300300 -0.0046357749454354 75 72 67
-1.1034416144892489 -0.7511600690763497 0.1650136668116799 20 14 14
-0.7954946968639756 -0.8264538148924498 0.0447978528026562 42 35 29
-0.9421450127739998 -0.7623800686502441 0.1846093463892358 90 70 59
-0.5957475288649789 0.1893976199189484 -0.0051902297444210 30 27 22
-1.1086626225076004 0.3593639973484432 -0.0045825765885570 88 84 81
-1.1515143989489531 -0.2485047166132875 -0.0051775551439394 65 61 58
-1.1080331631039471 0.3591838052082960 -0.0049168807337295 88 84 81
-0.0506219341150940 0.5433801382253770 -0.0034803016167907 62 55 49
-0.0506219341150940 0.5433801382253770 -0.0034803016167907 62 55 49
-1.0345724262105389 -0.7566967292708834 0.1570915638278788 20 15 11
-1.2301694423276985 -0.7836721728189171 0.0826923315896810 50 39 33
-1.1094697962895190 0.3786557038903735 -0.0105459954863900 79 74 70
-1.1089349192815505 0.3728686919834784 -0.0043699608802119 79 74 70
0.0832774433851527 0.5198981709682701 -0.0041149957280431 46 42 39
-1.0250324726638886 -0.2799874264480451 -0.0049648712429792 58 51 45
0.0660898214791471 -1.2966264103637970 -0.0053429322529974 56 54 55
0.0662290493750082 -1.2960771336803831 -0.0050276040057295 56 54 55
-1.1662371468517652 0.4057919518813022 -0.0046864710783389 87 82 76
-0.4092984253989002 0.8300377494304392 0.1856355646152147 91 70 65
-0.4092984253989002 0.8300377494304392 0.1856355646152147 91 70 65
-0.4891021775832356 0.1953803099007644 -0.0051685611334976 91 86 82
-1.1088577938775581 0.3972285847884317 -0.0047760991783602 85 80 76
-1.1088577938775581 0.3972285847884317 -0.0047760991783602 85 80 76
-1.1677358087567651 -0.1962466455399512 -0.0043298201244780 86 83 78
-0.7405748822490478 -0.7567533799809402 0.1552579043554836 83 63 56
-1.1958204765581451 0.4357392500529526 -0.0052251881685573 64 59 55
-1.3228794497094112 -0.7340608658985186 0.0346840515580020 48 35 29
-1.2425216441523834 0.4596346191005507 -0.0053395843749836 42 38 35
-1.1773975708202089 0.4397716211048636 -0.0049640633803435 33 28 22
-1.0787892173257960 0.4099560413623472 -0.0050736933051492 46 41 37
-1.1857515480454914 0.4436303343808023 -0.0047803391476001 84 79 75
-0.4917537429659081 -0.3723188572862354 -0.0053627483269564 69 65 62
0.4726840896144304 -0.6697534964759444 -0.0043175862439190 53 43 34
-0.6709725758988543 -0.7423774972002709 0.1550449000366802 56 41 34
-0.5744268190180124 -0.7559306632811488 0.1601162931766751 18 7 1
1.0586184592784464 0.5449779748124692 -0.0048508128088389 47 43 40
-0.2180315370908169 0.8243849610132848 0.1754543000879884 25 17 14
-1.1870761604671178 0.4691975863439577 -0.0049848426871432 76 71 67
-0.5309295757659327 -0.7564571787908494 0.1545899294107966 85 66 59
1.0388109403314516 0.5618970787234823 -0.0070994661825186 93 79 70
-0.4510413366373349 -0.7554612339155249 0.1574506199064570 25 17 14
-1.1850646938442972 0.4945229048377203 -0.0048121877962736 50 46 43
0.5802720530450554 -0.3168632433524015 -0.0030282937606515 73 69 66
1.2449593492899558 0.5336783042424620 -0.0037107619680661 51 48 43
0.0843009955219198 0.7695231838124876 0.1870336971196885 20 19 15
0.5539948699201651 0.8125816907910783 0.0784970146647777 48 37 33
-0.0552872039612152 0.9646774697531172 -0.0052206928083870 23 15 12
-0.5396504651531961 0.3137162047500628 -0.0046348114603843 56 51 45
0.7300875730458123 0.8318007005399557 0.1849860311840841 17 14 9
-1.1095623429446380 0.4981841432565245 -0.0049093323031298 91 88 81
0.0160717227119875 0.8122062856097627 0.1873654827630805 68 55 47
-0.4814426698011089 0.3028170104671957 -0.0039271049433186 71 66 62
-0.4542755964539511 0.3011878247523130 -0.0049424596120023 74 70 67
0.4658878016914426 -1.2063264014690793 -0.0097565650346966 107 94 85
-0.4857435157599399 1.1218241119362695 -0.0038272871088276 48 44 41
-0.0100263265299498 0.8334657940019502 0.1798481880481984 28 14 11
-0.0703990599474824 0.1984566748964834 -0.0059091158774534 119 109 100
-0.4538821337854009 0.3255147808251948 -0.0051988589885065 72 68 67
-1.0606473983886693 -0.0366275039060516 -0.0045693475535287 61 58 53
0.0543561897146993 0.8254583959800506 0.1866657091720739 29 16 10
-0.6748194323323735 0.4109399564977405 -0.0076580870299102 89 76 67
-1.1168321471927349 -0.6521497582606316 0.0057353742702004 55 44 40
-1.1157097179705304 0.5539960386701924 -0.0055697010395773 42 37 33
-1.1157097179705304 0.5539960386701924 -0.0055697010395773 42 37 33
0.4970660691212058 -0.2318546940984537 -0.0057311359503338 66 62 59
-0.4808100778022039 -0.2016394281830707 -0.0047400043802331 33 29 26
-0.4788771332236157 0.3543829586446194 -0.0049807450538157 71 67 64
-1.1536421037042666 0.5751776881678049 -0.0048401157642838 49 42 36
-0.5026067750035429 0.3656946026516964 -0.0051599698262142 111 104 98
-0.5294388954972367 0.3743019789122719 -0.0048437656203375 98 91 85
0.4708180342831222 0.5939523229605124 -0.0044586038984867 55 44 38
-0.5883494652222148 0.3922718060200819 -0.0046956853330398 78 74 71
0.6736205673918927 -0.0154449708879202 -0.0041773793019316 52 48 45
1.1187983238970511 -0.4068219996015772 -0.0068308165436479 43 39 36
1.0733361556554413 -1.1296550902753855 -0.0049351452860683 94 87 79
-1.0826114689499169 0.5641630292742903 -0.0052313679721834 74 69 65
0.2029228879534810 0.8388748737362344 0.1586167826999916 18 13 10
1.0846165558323027 -1.1218137814362295 -0.0029589146931558 59 55 54
-0.1494656932984813 0.8678624139246589 0.0247193734908093 47 38 33
-0.4689599174575146 -0.7364192208975340 0.0291568755134868 18 13 10
-0.5558340689110109 0.4515095211267808 -0.0054713687007726 62 54 51
-0.4850778309757159 0.3815101270892550 -0.0048025947014064 48 41 35
0.6250650898615503 -1.1197389478590034 -0.0041914339746991 35 34 30
-0.0632781726974872 0.2972245029805103 -0.0047242343566412 35 28 22
-0.5381601552715172 -0.1081299684332723 -0.0053528494004527 79 75 72
1.2140618641165004 -1.1512543193667335 -0.0051311075122705 32 28 25
-0.6581717788650455 0.4390668045933385 -0.0036502931888134 50 47 42
1.2140618641165004 -1.1512543193667335 -0.0051311075122705 32 28 25
-0.0417655865224725 -0.7796824905129626 0.0826177601269134 76 62 59
-1.0816564663059243 0.5765328365146400 -0.0051148765057779 38 31 25
-1.1943598618942843 0.1239659153323640 -0.0052434371504754 77 73 70
0.6012710283467556 0.6336153108904027 -0.0037726608938434 56 43 35
-0.3606747674464164 -0.7235928488905752 0.0237976343672449 81 63 53
0.7286778776466885 -0.7612288544988046 0.1824167366393109 21 18 13
-0.5911568158348981 0.4952114492944115 -0.0042787098842706 35 31 28
-0.3101094307169240 -0.7280740202913566 0.0256243584593851 21 16 13
1.0682445067092305 -1.2183718577751474 -0.0108331897270037 72 67 61
-0.0418763991588486 0.3234844044865735 -0.0046899793856012 75 71 68
0.1284248730995275 0.2724918417211526 -0.0049474191826342 89 85 82
-1.1435766431130132 -0.4852099334420601 -0.0046265754114008 59 55 52
0.3630848052706541 0.8846866393024945 0.2201202558036918 61 58 53
0.4580911992759388 0.8350554230563467 0.1840308626276776 24 14 12
-1.2057874688860977 0.1704658863568741 -0.0045878051553508 70 65 61
-0.5158374542700176 -0.0498246362478811 -0.0044123260333964 70 65 62
-1.2133258970922118 -0.4611055874831212 -0.0048309091088750 84 80 77
-0.0424595104054118 0.3369304162611229 -0.0044963950128664 73 69 68
-0.4957145800902569 0.4886870865525832 -0.0037377663173899 72 68 65
-1.0440042731837718 0.1243817914662460 -0.0040436322333625 70 63 55
-0.4819567764067614 -0.7582483867709682 0.1537924796823885 89 66 58
-1.0044936725892140 0.8224078377719960 0.1865380860029280 23 15 12
-0.4948103564263883 -0.0403496142913259 -0.0047324421462991 93 88 82
-0.6521272743066837 0.0103337257954279 -0.0047767978094128 28 27 23
-0.4650638882311985 0.5021831351053572 -0.0053755212809902 31 27 24
0.4648308253914890 0.8395869811806087 0.1601377966047817 24 16 13
0.0118948146019313 -1.0713716539871758 -0.0011681249458340 63 59 56
-1.1224669930060724 0.1822682003961744 -0.0052415064653379 59 55 52
-1.1218753155884527 0.1821913002113129 -0.0056534200531657 59 55 52
-1.1411257754909219 -0.4333933156395310 -0.0050062722498000 76 72 69
-0.4840165643007360 0.5326702168796417 -0.0046405194402478 30 27 22
-0.6617371752381301 0.6026695268780207 -0.0073471509034725 21 13 10
0.7205044504429764 -0.7811743413032386 0.1856993877840277 19 14 10
-1.1546919777529479 -0.6480804466996087 0.0076266519825265 57 48 43
-1.1677949779919052 -0.2547906440160602 -0.0024948792223361 78 74 71
-0.9527443847328518 0.7502209032870790 0.0419599072270269 46 35 29
-0.5711094968124515 0.5411071865259498 -0.0046361207379863 44 41 36
-0.4478069942876796 0.0043144300584464 -0.0046766264471102 37 32 26
-0.0478983489601403 0.1232888946418471 -0.0059528601486809 70 66 65
1.0386805292632981 0.6088783234815047 -0.0082332358043957 93 80 74
-1.1773984635668202 -0.3389441782946007 -0.0047080564107723 79 76 71
-0.0200806430204569 0.4459278762257988 -0.0049545145769253 51 47 44
1.0348299017107787 0.0150257883936631 -0.0154322215238631 118 105 97
-0.5475242088526613 0.6207896738281423 -0.0045437622636089 49 40 35
-0.6524147208321415 -1.1610262531754330 -0.0047752261576155 84 80 77
0.4942379867909028 -0.7157972888269499 0.0075688660831684 57 48 43
-1.0828226635243310 0.2393294439440819 -0.0054283722847625 85 81 78
-0.0709938145906197 0.4113217679099375 -0.0082579440382953 128 118 108
-0.4726680180686070 0.0429261425452863 -0.0035043638775643 53 49 46
1.1163556373731602 -0.1857839542669307 -0.0030811209818298 37 33 30
1.0404567037489145 0.1094570855387124 -0.0220632926254391 101 91 82
-1.0650448746709107 -0.7532638001036094 0.1622787391455781 25 17 15
-1.0648040846913074 0.2646746877509729 -0.0049886899973575 49 44 40
-0.6310787490756743 0.8294984847128873 0.1847548832134713 98 79 72
-0.8986670247952333 -0.7605774818790282 0.1824258743925226 23 19 18
0.0458969493066849 -1.2890357907188714 -0.0052347905097935 54 54 54
-0.0313921084230401 0.4874759329095323 -0.0045763477837237 74 70 67
-1.1570583697772263 -0.7803581736329004 0.0867218527274434 56 45 41
-1.1420842097304040 0.3295082824042077 -0.0044104640939137 96 92 83
-0.0695561793806581 0.2669476827266840 -0.0114869145331116 109 99 89
1.0653459198383388 -1.2679073134963197 -0.0174287074896019 66 63 58
-1.0794295061227888 0.7691255668233723 0.1866595868177874 16 11 7
1.1752863857970457 -1.2643753472362937 -0.0032256184003280 73 72 70
-0.5141013014493827 -0.2669334515679341 -0.0024376707673545 42 37 33
-1.1813749907406659 -0.7477595005143161 0.0346523644163322 31 24 18
-0.5647223310093901 0.5072513296957265 -0.0063002120212514 34 29 25
1.2240364749713188 -0.7284078053793535 0.0322205266478657 17 13 10
-0.5324664134793904 0.5009889773885942 -0.0049307647174239 83 80 73
1.1066856287129028 -0.0296104949240203 -0.0041762308606771 38 34 33
1.1065506020631444 -0.0258400965082869 -0.0019493518363785 38 34 33
1.1880119067635593 -1.1851724725148267 0.0020130145544324 63 59 58
0.5867680301509419 0.1865946649916244 -0.0042527433093593 42 38 35
-0.5670604573286768 0.0201378085321930 -0.0049300955082490 67 63 60
-0.5155158727401077 0.8323744078516755 0.1552348702642949 21 17 14
0.5495579889396867 0.3981778013729951 -0.0063922811102157 67 63 60
-0.3749577570486650 0.8394475913878396 0.1630200061178897 21 16 13
-1.0557269228783601 -0.2512811169444225 -0.0060232652971709 60 56 53
0.1454984093126032 0.8349540910449291 0.1647958351452853 21 13 10
0.2275663485299455 0.8233517930963514 0.1827656523234377 19 14 11
-0.8717508176104658 -0.7571873808888901 0.1653682812032992 23 17 17
-0.4807986677427838 -0.7782856697617190 0.0894007998763362 73 58 53
0.3976514775100244 0.8363048095492386 0.1652880911078062 19 14 11
1.1016762654609933 -1.2980623040431631 -0.0041342272857052 59 55 54
0.4177214923066535 0.8180015664993825 0.0982433278499993 39 28 22
-0.0446181249398993 -1.1706072331154727 -0.0075129043461341 47 43 40
-0.4659757820638165 -0.7555166961579078 0.1734240445835235 22 17 14
0.4976890453761399 0.8102508846860509 0.0828507558541142 57 44 38
1.0796637509058744 -1.2833565173385155 -0.0108998972937934 93 84 77
-1.1821906286531594 -0.6956433603250382 0.0182083234017237 85 65 56
1.0952762376662588 -0.2331578309855583 -0.0025532337288777 37 33 30
0.6472817002920824 0.8412591132525963 0.1718390384150276 23 18 15
-1.2193037221661096 -0.0961773837238202 -0.0050198578962847 41 38 33
-0.3253693557701485 -0.7388613133350481 0.0323571323537012 62 47 40
-0.8624492986445943 -0.7234068720333958 0.0200637314034380 25 21 20
-0.1600815857696651 -0.7540249351856163 0.1685898724598065 19 15 12
-0.7567457298241435 -0.7312991598068262 0.0352871507049609 61 43 33
0.0496168498044344 0.8561588922434202 0.1528032405068659 50 37 31
-0.5801472960071732 0.3497097883456903 -0.0044983676814720 56 52 49
1.1759341354736343 -1.3033032472490576 -0.0057084919058500 69 68 66
-0.4929747373563443 0.3981079304389452 -0.0072502043982310 83 78 74
1.0754212187658467 -1.1953291180846792 -0.0055443908210314 96 89 81
-0.2027510995477964 -0.7341269260902248 0.0351453777694841 61 44 37
0.5859196940196045 0.8322822821051221 0.1806190087394018 139 124 119
0.2726788043902765 -0.7287412620386071 0.0122363093074314 18 12 12
1.2061583914638518 0.5190680580122775 -0.0044857782120057 62 58 55
1.2093869133615547 0.5139675218511447 -0.0060145543921393 62 58 55
0.6017261667879212 0.8387664648518609 0.1698736571092804 21 16 13
0.5104278674031064 -0.7557572091234651 0.1638498124879943 24 16 14
0.2600352445432781 -0.7163825137294795 0.0048143833809000 72 68 67
1.1364120191897085 -1.1360011162491996 -0.0036410842418275 35 31 30
1.2443532293905397 -0.6197746635285474 -0.0059116345922766 63 54 47
-1.1274803451213851 -0.7530980067245507 0.1706371358531535 21 16 13
-0.9051064774906957 -0.7517652851055157 0.1691719347195176 20 16 13
-0.6345051816493834 0.0435711968763714 -0.0068776087506471 67 63 60
1.1126189858338120 0.0744860750667452 -0.0041115174141848 77 73 70
0.7421156360430988 -0.7219949767948370 0.0207398088577966 25 17 14
-0.3357271133481557 0.8431100185182390 0.1781043182136733 18 14 11
-0.2896066497994869 0.8364381385008754 0.1625689258405689 20 16 13
-0.1207409631979940 0.8314770334511117 0.1599433223959217 25 17 14
-0.6149892841389152 0.9007062605102327 0.0152136543294052 24 19 16
0.1715290945924031 0.8392014631718947 0.1663405889524245 22 17 14
0.6024794602431819 0.8126605925234571 0.0876612987772394 53 40 34
-1.0901120445569434 -0.7762911138273836 0.1043702599815832 61 48 42
-1.0296765871397371 -0.7195871277598855 0.0140630712443524 14 10 7
1.0461362595363104 -0.0966988117212400 -0.0138719404869513 94 85 78
0.6536317738830820 0.6213460473521372 -0.0075048632765038 56 43 35
0.5250416269768380 0.0711794360917936 -0.0029970530996675 68 64 61
-0.5877446746451064 1.0567723418192598 -0.0057284361103855 58 53 49
-0.8682539391631356 -0.7814217323158430 0.1030840914102183 62 48 45
-1.2008788513688311 -0.3962737420562364 -0.0060246474721271 78 74 71
0.7156120100996972 -0.7591005893037224 0.1727258294176381 110 91 84
0.7156120100996972 -0.7591005893037224 0.1727258294176381 110 91 84
0.6033962046225221 -1.0926417203063821 -0.0028536686939932 74 70 67
-0.0232028007542061 0.3570649848553285 -0.0153195931457612 73 69 66
-0.5926340096419840 -1.3349956674309960 -0.0052519040745153 82 78 75
0.4706743280276384 0.9008829214136392 -0.0039561799182044 21 13 10
-0.0649746571205523 -0.6697031900462080 -0.0052840220359517 21 20 18
-0.6632879072940214 -1.3168949478447813 -0.0044265430046727 65 61 58
-0.6644573418280959 -1.2949455804942247 -0.0052140533035646 68 63 59
-1.2534179209952918 0.4621979297615093 -0.0140243645915246 128 119 112
-1.0131435027351328 0.4689544138096745 -0.0046064003908284 88 81 75
-0.6301723435465515 -1.3153938388656483 -0.0051366022227143 68 64 63
-0.6301723435465515 -1.3153938388656483 -0.0051366022227143 68 64 63
-0.4632688288990652 -0.2021774298910080 -0.0103368861209263 70 66 65
-0.6659957398915797 0.4812488717881267 -0.0039687076101017 57 52 48
1.5970538275194510 -0.5805904475369792 -0.1602434905861558 13 9 6
-1.0697128416904098 0.0665007343020939 -0.0044451120380239 109 100 93
1.0366074172629098 0.5535384911839266 -0.0583708044758300 58 50 47
-1.0697128416904098 0.0665007343020939 -0.0044451120380239 109 100 93
-1.2464329943646686 0.4945074619889476 -0.0053100672354005 47 40 32
0.5368753005596114 -0.1389907730281309 -0.0054967528123353 63 59 56
1.0382407387340895 -0.5462985585553841 -0.1636627695372564 43 38 35
-1.2077820275301767 0.0801730380709261 -0.0047629894617069 87 84 79
-1.0359991808504607 0.6035560895580034 -0.0051574662888699 57 48 41
0.6836456337234759 -1.2172693279580828 -0.0024540435766522 53 48 44
1.5987273911650213 -0.7026575271914776 -0.1722200089089077 22 17 13
-0.4706575464987901 0.5179616177020026 -0.0047025772690004 70 66 63
-0.4706575464987901 0.5179616177020026 -0.0047025772690004 70 66 63
-0.4706575464987901 0.5179616177020026 -0.0047025772690004 70 66 63
-1.0168949354682075 -1.1954288644195534 -0.0056358195791659 63 59 56
1.0419368777252940 -0.3880340851355215 -0.0601238300114754 50 46 43
-0.5434368008255513 0.1087137165773956 -0.0051865760915136 65 61 58
-0.6648291656617646 -1.1844818877682486 -0.0061165612926058 67 62 58
-0.5430949005403596 0.1217426557881919 -0.0054474530913530 65 60 57
1.0348916905160053 -0.4011204529341876 -0.0901294115178187 63 60 53
1.0336256399319135 -0.5805295399777137 -0.1096257170876133 73 64 59
0.4670000123884924 -1.1588046814810651 -0.0082407716380991 96 86 77
-0.5497161132578487 0.1299364059970554 -0.0040291670083175 82 78 75
1.0369377454109583 -0.2079363096164464 -0.1566057477894279 52 48 45
-0.4532150546858515 -0.3115348162728416 -0.0053097152874538 35 31 28
-0.5944101520260423 0.1360927358503258 -0.0035826817245009 35 31 28
-1.1138483824487093 0.1354624660385322 -0.0043401257636012 66 62 59
-1.1706240431377153 0.1401997546316016 -0.0055316270884438 91 88 83
-0.6732937605236480 0.1456240705157352 -0.0071460712402681 105 93 81
1.0385781618792553 0.4438371882020493 -0.1467482396917989 71 66 63
-0.4756372304595559 0.1483983403916021 -0.0059139336788383 73 69 66
-0.4754080649075281 0.1487793688206863 -0.0058216832196363 74 73 69
1.0373435286590706 -0.6058010937679034 -0.1550769445253683 50 45 41
-1.1345201591485268 0.5532070470245959 -0.0040038996219161 65 60 56
-1.1123746820262714 0.1535947583398320 -0.0043425091707400 77 73 70
-1.1393233062113783 0.1528033310678182 -0.0047928159694451 63 59 56
-0.4951991823206671 0.5591036514344121 -0.0048658547948759 40 36 33
-0.4955833793763960 0.5590163823865204 -0.0054941121108039 33 29 26
-1.1207733496185279 0.1583312899428255 -0.0048735682962628 59 55 52
0.1342029105391192 -1.1067730259674802 -0.0022451786392468 58 54 53
0.0661488180781111 0.5600143265477073 -0.0158999187756589 65 62 57
-1.1640779188411547 0.1623328092959460 -0.0050266719603063 68 63 59
-0.6644389297074018 -1.1079390871083905 -0.0053807239085110 65 60 56
-1.1717559570896352 0.1665981200005504 -0.0040374343044553 93 90 85
-1.1711599305161320 0.1667552337768879 -0.0039977124400897 93 90 85
-1.1924189912420537 -0.3818496070225352 -0.0048988106160203 82 78 75
-0.0183045588057283 0.1673849599009975 -0.0090137911274584 21 20 18
1.0344350356296803 -1.1833600296889406 -0.0734855431507228 60 55 51
-0.5633128722030087 0.1741682087151543 -0.0047224009446495 91 86 82
-0.4439278762187576 0.1760188702037511 -0.0051852875982534 49 44 38
-0.4439278762187576 0.1760188702037511 -0.0051852875982534 49 44 38
-1.1745463132436158 0.1780118767364113 -0.0049130542096975 69 66 61
-1.1318305486771418 0.5942712676816785 -0.0054074238876033 65 52 46
1.1623270779067600 -0.3631511592214730 -0.0069450299120535 47 43 40
0.5831075022066414 -0.2378708174880296 -0.0012875821406117 65 61 58
-0.7539644080275582 -0.8369319061738940 0.1874281524978625 57 46 40
-0.0696856545042001 0.1712422445838990 -0.0110508383672072 122 112 103
1.0342838632320626 -0.0650891823602118 -0.0822234236855873 59 56 51
-0.5644393303595939 0.1843868795796901 -0.0047186646399143 87 84 79
1.0362373096752595 -0.0989689494337782 -0.1286858463009881 82 77 73
-0.0631247188070861 0.1879854576050394 -0.0053378284318625 51 44 38
-1.1706768077142700 0.1901657521588105 -0.0046542343251675 81 76 72
-0.4940780810131257 -0.7632522607440402 0.1843828521750947 90 73 63
-1.1289808366637006 0.2008105727832717 -0.0045475312965374 79 75 72
-0.6376866705560015 0.2171905919566593 -0.0045878930302660 74 71 66
-1.1707338328742323 0.2172810870707871 -0.0047265055977308 90 87 82
-0.4738302269114464 0.2263753232360770 -0.0041606313384243 74 70 69
0.2206841168172489 0.7675679224180335 0.1957898234464845 28 19 20
-1.2085537103814716 0.2286371515274722 -0.0048670258768543 83 79 76
-0.7489516370853181 -0.7551645841269345 0.1693001913086867 23 18 14
-0.0714965330683329 0.8367088040409478 0.1723789635858521 25 15 13
-0.9966979228771149 -0.7580224708312134 0.1586864235615531 83 60 52
-0.5703199547301533 0.2391428177224290 -0.0051369925899530 55 51 48
-1.0385623968698301 0.0736723748384809 -0.0047293882153555 42 35 29
-0.6740903072949050 0.2530746841570062 -0.0075229264670904 101 88 79
1.0353759953062354 0.2563476136285612 -0.0183028487036496 63 54 49
1.0382400609977140 0.2724003297992452 -0.0088795831091485 100 90 81
0.0576052649749479 0.8381502473972404 0.1567070064514714 37 24 15
-0.5246090519579184 0.2753799347030423 -0.0061827884493553 76 71 67
-0.6341913550121119 0.2764446279770264 -0.0041324399768141 44 40 37
-0.4488503241773921 0.2787398646081147 -0.0045521575356726 44 40 37
-1.0783763695733146 0.2829139600233364 -0.0047869188303623 54 50 47
1.0320965491869245 0.2795361310789146 -0.0161526810356285 73 70 65
-0.6449014614577404 -0.7589708433912222 0.1815188350780990 112 97 92
0.2689880251373855 0.8461094783420445 0.1894213931521642 21 17 14
-0.6661521918237385 0.3220554129662048 -0.0043005712273376 54 50 47
-1.1123989462059409 -0.0914479578700788 -0.0052771339931230 72 68 65
-0.4923882541521890 0.3326125486964271 -0.0060247751820829 96 88 85
-0.6617117182363366 0.3394753833083365 -0.0071373037088011 81 74 68
-1.1685673354161372 -0.2884909812798809 -0.0042988198212378 82 78 75
-0.6065544070229272 0.3433377767579534 -0.0048537212132641 68 63 59
1.0327695494951337 -0.3215360794689665 -0.0387473534465343 38 33 29
0.6971289244686386 -0.7584210512507477 0.1738990522470812 19 11 9
-0.4926483745362707 0.3497075853213901 -0.0047478395696088 85 80 76
-0.4854774920973074 -0.2603810716768735 -0.0043292954369463 41 37 34
-1.2117521518784311 0.3510444842853329 -0.0046549643955472 88 83 77
-0.5584043362736990 -0.7568537232168733 0.1643470900416872 95 71 61
-0.5745287639791872 -0.7556958890384372 0.1605301313874553 18 7 1
0.6037053072145574 -0.7560498440169181 0.1589047990999888 21 13 11
-0.6564244125527567 -0.2531353057595396 -0.0046297123008445 61 58 53
-0.7790954387478251 -0.7552571912052273 0.1597291108062367 22 21 16
-0.4947020977447584 0.0483214374395639 -0.0044521746509502 89 85 76
-0.8651247473329111 -0.7824511285482439 0.1027820432154131 69 55 52
-1.0510865935163154 -0.7565119771282567 0.1579325614510081 21 16 12
0.4634509014196071 -0.2064456321419383 -0.0060337542228269 96 86 76
-0.9776896756628117 -0.7552184018013454 0.1568016414824223 85 65 56
0.0267417778196928 0.3500998382263817 -0.0078002612539408 55 54 52
-1.1013671419148257 -0.1818151454722543 -0.0047634385147566 53 49 46
-0.5077112379639104 -0.1751540501680977 -0.0039976412550273 53 49 46
-1.0926550590767818 0.3602723580719109 -0.0046762818419754 54 50 47
-1.1531825347697664 0.3624153912913147 -0.0044925506555392 87 82 78
-0.7803205919488154 -0.7788894682697066 0.0843462105285999 58 45 39
-0.4905106715708046 0.3702539193136506 -0.0048060707139361 82 78 75
-1.0923575947606041 0.3717018697148543 -0.0041542665448556 54 50 47
-0.5290007097943481 0.3737717767872029 -0.0054130639248171 98 93 87
-0.5839029769605052 0.3791084636499405 -0.0045794901011662 58 54 51
1.0382952302571413 -0.1556642655651894 -0.0213146216541872 94 85 78
1.0349561221278161 0.3512555560294296 -0.0486304128052435 76 71 68
-1.1717284582373342 -0.1387059879114159 -0.0049568717736539 38 34 31
-0.4764562559729750 -0.1249084812616978 -0.0050839343737540 70 66 65
-1.1168291341318692 0.3868336875644001 -0.0057231553245283 71 67 64
-0.4925061015612868 0.7429937081677692 0.1724847029642677 54 41 35
-0.0695064918705903 0.2907169763807593 -0.0110668202512582 117 108 99
0.7920880239800352 0.8616059748728906 0.0276602770411005 19 11 9
-1.1679209495880840 0.3943212321678665 -0.0048974592602326 85 80 74
1.0369258658111939 0.1947420371901018 -0.1472483139986708 55 51 48
-0.5402875184610605 0.4004323886660985 -0.0042750377467725 82 77 74
0.5705850640859687 0.8798199730028766 0.0306521881260169 24 23 21
-0.6720750505784051 0.3996960017667737 -0.0074822524083906 26 19 13
-1.1160340106449516 0.4049078155803212 -0.0027657479486402 68 63 59
-0.7929241042992422 -0.7355327893787588 0.0302134979400644 69 52 44
0.4861039174024550 -0.1062419223354002 -0.0003060615308086 55 52 47
0.4602077772260018 -0.2217902228029959 -0.1412424335119667 30 26 23
-0.6420402121047807 -0.7316977735026702 -0.0016921412481932 17 13 10
-1.0433243671426369 0.3448313423989642 -0.0049889452233570 48 43 37
-1.0763100259209033 0.3444511962443643 -0.0049937331006136 50 46 43
1.0361163007821250 -0.0934154111731666 -0.0206928296232005 71 66 60
-0.4544136878365931 -0.0783370815039416 -0.0046311621803899 62 57 53
1.0374793367025426 0.3524786028273013 -0.0106185642099511 94 84 75
-1.1947403408704811 0.4188084972815551 -0.0051106250693850 71 66 62
1.0361402950476597 -0.0905949121615844 -0.0433658528967935 48 43 39
-1.1733595183504570 0.4288796746023826 -0.0046003138136601 97 94 87
-1.1462907148262793 0.4308412075809431 -0.0051250324733368 104 99 95
0.1386260779198353 0.3661302143690804 -0.0038135137073997 67 63 60
1.0896566304075028 -0.6625379912126961 0.0147002882106581 80 62 52
-1.1365365512754595 -0.0369099983997984 -0.0052998932834988 84 80 77
-0.5982711406099575 -0.6576306649822377 0.0140847942447015 78 56 43
0.1326227478184812 -1.1904789223544561 -0.0032514997894847 61 57 54
1.0841435843072260 -0.6596297142890429 0.0064976529349999 16 12 11
1.0358504144359686 0.8900333376577154 -0.0132483486257619 67 53 44
1.0358504144359686 0.8900333376577154 -0.0132483486257619 67 53 44
-0.6420492188067595 0.3525972041024839 -0.0028438490794658 80 76 73
0.1374961894361361 -0.4744070127315020 -0.0038095822518182 78 74 71
0.7062589871368135 -0.7701583134533099 0.1897046387433118 27 19 16
1.0346676001816177 0.4368703345775640 -0.0530512427453960 60 52 49
-0.0718011986162110 0.4733360654042947 -0.0088496982729603 115 105 96
1.0359840557987834 -0.5220080328738804 -0.1125200936602167 64 59 55
-0.5522149775221548 -0.7561185112888772 0.1741040550305560 103 88 81
1.0356567793828375 0.3083256690806359 -0.1572189844836642 52 47 43
1.1590732945625306 -0.7035961796231863 0.2013826958360582 15 11 8
0.0387155299359305 -0.7524401917363035 0.1626235085457047 22 16 16
-0.4820518309649505 -0.7582887755642456 0.1538248427757422 89 66 58
-0.7777983605757415 -0.7357131463926949 0.0314580870900952 60 43 35
-0.3718957485467050 -0.7200347145990914 0.0216911772542263 20 12 10
1.0486469340634832 0.5762409570181151 -0.0234576441564036 93 79 70
1.0385550268141648 0.5858426021878045 -0.0090737263020736 85 76 69
0.6923230897249990 -0.6648792292583465 -0.0056882216666354 26 18 15
-0.3208974193341628 0.7585658747428696 0.1730950941621338 25 15 13
0.5814961792010729 -0.4729984085973828 -0.0053208862696727 69 68 66
1.0844117391057775 0.8926030829999253 0.0218970099754009 19 14 11
1.0792377031689937 0.8995905119704802 0.0066063530505265 49 38 34
1.0788687427945525 0.8999164776742501 0.0069579724958884 49 38 34
-0.0411576680904123 -1.2796474327249072 -0.0048467143332339 48 47 45
0.6703233502892989 0.0807469589524321 -0.0054498352878250 38 34 31
0.7148111007552753 -0.7242743239241235 0.0195569238349564 19 14 10
-0.8996408794760631 -0.7252862914912004 0.0170626752166063 24 20 19
0.5209382733223512 -1.2027890284433871 -0.0021619820897671 75 71 68
-0.4041550023809042 -0.7372372296822026 0.0308637541096621 64 49 42
-0.0617858021960060 -0.7138574488922441 -0.0077937684651563 63 49 40
1.0482483526201727 0.2038587218137111 -0.0115241918354860 80 73 65
0.1160391392944360 -1.1688001316793570 -0.0069765845063424 80 76 75
0.6819669681015785 -1.1460183513523214 -0.0017445817187306 44 40 37
1.0500834359334041 0.8209766366126094 0.1876870955947225 16 11 8
0.4457781727577829 -0.7353893490629481 0.0329699552640985 72 55 48
1.0430491309003518 0.1435565989102273 -0.1381678748007828 38 35 30
1.0367241803165941 0.1495041282137473 -0.1316039322217915 38 35 30
1.0360845463286850 -0.0548366311993162 -0.1402417340234290 44 39 35
1.0343729344228483 -0.0432835749674477 -0.1299249008365573 69 65 62
0.5394661335911470 0.8341587322520843 0.1625149027819812 21 15 15
0.1532581809809564 -0.6161444195378588 0.0006938238405570 70 68 69
0.7779692746775235 0.8359606902681822 0.1575406301044185 24 16 13
-0.3399804599207872 -0.7253069599919528 0.0180425715283938 22 17 14
-0.0704681489248783 0.3404296682900645 -0.0082243178714738 111 97 88
0.1259460158276073 0.8139110607985947 0.0806357125261699 53 42 38
0.7724894343039286 -0.8250706148122485 0.1793753549651868 20 16 13
0.9932639924094127 0.8131830358016223 0.0570152175039959 17 13 10
-1.0817224673414880 0.2113310241426758 -0.0042951619047659 67 63 60
-0.4392099515240948 -0.4065591140522495 -0.0058812199119281 87 80 74
-1.0817224673414880 0.2113310241426758 -0.0042951619047659 67 63 60
0.4827273072650701 -0.5808164789522499 -0.0045154512033533 39 35 32
1.0428797870379840 -1.2482559862403404 -0.0189911961649025 78 71 63
1.0210417867328743 -0.7370342140930670 0.0297651098329177 65 48 41
1.2596218603224065 -0.4570339038103681 -0.0063328490603839 36 35 33
1.0274799473520346 0.2289742424403424 -0.1277804048747076 59 55 52
1.2410915657243120 0.4893893869872089 -0.0091177996970489 58 54 51
0.6695123310541834 0.5105231466081346 -0.0029728846361780 53 49 46
1.2410805655728905 -0.1852280591018828 -0.0044842516799296 71 67 64
1.0431554383957580 -0.2336385680585064 -0.0731317856031328 51 47 44
1.0563931034285157 0.4485645435913185 -0.0050622518269496 49 45 42
-0.3835284836535637 -0.7387233516806213 0.0317315730040958 63 53 43
1.0598112291652781 -0.2582406982049424 -0.0052166098098861 73 68 65
-0.6654962476073500 -0.7395461748209879 0.0329008334413299 67 54 48
-0.0710513960873750 0.5076840099482540 -0.0057827644742874 115 102 93
-1.0112417414603603 0.7574926698878178 0.1943569971521062 46 34 34
-0.3919858300139906 -0.7242916414464875 0.0219747707356029 22 16 16
0.6612757792990266 -0.7043622045733997 0.0378759349974319 14 13 11
-0.5741949610240398 -0.7794155320030053 0.0894686739927668 63 50 44
1.0446767114033864 0.8424409594144011 0.1780130287745875 23 15 13
0.9829016692048261 0.8439812471757753 0.1804097912465337 21 16 13
0.7768056634837557 0.7750910672989955 0.0317241262134563 57 42 35
