ply
format ascii 1.0
element vertex 706
property double x
property double y
property double z
property uchar red
property uchar green
property uchar blue
end_header
1.0643055222455593 -1.2181110944732214 -0.0053090764251397 101 92 83
1.0804130016165625 -1.2590633698749116 -0.0037259725186826 129 121 110
-0.1893858046719476 -0.7756666836370892 0.0598077291017530 82 62 55
-0.0048998437350972 -0.5530416137414471 -0.0046127250147461 87 78 71
1.0750584351288068 -1.1973534806125943 -0.0036114966229352 138 130 119
-0.1746009753415970 -0.7579208039151608 0.0398191735517721 73 53 42
0.9683140543445717 -0.7813144301893273 0.0511032213351858 90 71 64
-0.0307145506819203 0.3243009521585091 -0.0016278471259213 96 91 87
0.5384702128687393 1.1744918151901766 -0.0025792661498287 55 48 40
1.1639492127439610 -1.3774857653939747 -0.0007423736572660 71 71 71
0.5104961357784152 1.2848806063143470 -0.0041150191828554 106 99 93
1.0312227089223998 -0.9746576369901261 -0.0446075357310860 76 65 59
1.0463278560901845 -0.8121763763250290 0.1921579994709369 70 41 23
1.0095501709288135 -0.7806430920627435 0.0564610086527916 91 74 66
0.9999623576001536 -0.7376096428344704 0.0332733854910494 107 78 64
1.2566616481117614 -0.9548646597199333 0.0120102456986453 109 91 79
-1.2277458921819639 0.7022240818739997 0.0253111363494550 101 75 58
-1.1100770443288495 0.7757558360082512 0.1865031808063982 74 45 29
-0.5829890605251464 0.8868097770386841 0.0162463554012595 95 69 56
1.2471034855024474 -1.3041033923364123 -0.0063831829713697 77 70 64
1.0688328663055804 -0.7264925622836493 0.0146487905684803 3 3 5
0.5073351725403533 -0.8065936619506983 0.1886867945335313 71 40 20
-1.1727606466776597 0.8623729608277274 0.0422273791824400 35 25 16
1.1164142319120198 -0.7583939946300791 0.1585051711018314 3 2 0
0.6615345052370898 0.7597589518555532 0.1767323505057223 107 74 55
1.1837679926723372 -0.7712394480308458 0.1860551552636788 96 60 36
1.2625726197392659 -1.0282295853381505 -0.0097495442808244 88 74 65
0.6435358477149165 0.8811789833576710 0.0158946414813856 89 61 49
-1.2484061537978455 1.3466476062992456 -0.0212623561837004 111 102 93
1.2793557846139469 -1.0129949104250955 -0.0346204842697239 38 33 30
0.3618405625224641 -0.7391264231060665 0.0301229946129489 111 80 60
1.2782939885561679 -0.9813364585087393 -0.0142341167634202 45 37 34
0.0475735028712616 0.2170001698852574 -0.0014737699373645 62 57 53
1.2782939885561679 -0.9813364585087393 -0.0142341167634202 45 37 34
1.2249801572822123 -0.7291040488951774 0.0316773088556183 2 2 4
1.1170554930549363 -0.4033132714580522 -0.0028778622676965 78 73 67
-1.3080575340708194 0.7866124778296089 0.1826751360193893 63 39 29
0.5880497053811125 1.2524483734367871 -0.0036298650449750 54 47 39
0.4685689991168875 -0.7800654638049982 0.0538437811065786 84 64 55
0.6951097438847902 1.0098695829993580 -0.0019258492109724 105 86 69
1.3207985282955332 -0.8176532619780464 0.1912327173541958 64 42 28
-1.1761121493549263 0.7853952071735800 0.1932318506185599 36 14 3
0.0036390926010604 0.8870110918137566 0.0188904052320234 86 58 44
0.4858974980419499 -0.5795183676889628 -0.0029007952594463 54 45 38
-1.1330810666562496 0.7871475601617356 0.1825701995148951 58 32 17
-1.5798804565427600 0.9059607890587572 0.0027669261617862 103 82 65
0.5285597807754827 -0.0587358433726937 -0.0052571133741696 89 82 76
0.6569413863509201 -0.7760816010074563 0.0597728331627350 80 61 54
-0.5239824262055077 -0.7751654238373186 0.0358689239237123 77 58 51
-0.4777150869161463 -0.7679350014899353 0.0486750969842403 84 67 59
0.6270311102129568 -0.6181860385241407 -0.0030134663783381 73 56 46
0.7589895755754248 -0.7746078537700447 0.0681869645666769 92 75 67
-0.4042119333106377 -0.7749999219272496 0.0659253755541872 88 69 62
0.0763556127636313 -0.7784853264094656 0.0405288326428823 88 69 62
0.3480572606217504 0.7604811992684716 0.1874854548948852 104 67 48
-0.5778241526028545 0.3079528566219664 -0.0037077075533150 107 100 94
1.1579596833499968 -1.1434641016901284 -0.0022856826746435 92 87 83
0.6547883279146149 -0.2706112699630275 -0.0032618424539893 51 46 40
-1.0219199733467299 1.3454168683173999 -0.0049510730712778 115 102 93
0.0392277794400294 -0.8071972529031559 0.1906983110421223 33 11 0
0.5328929772567526 0.1065871794063758 -0.0024024101512162 128 121 115
0.5328929772567526 0.1065871794063758 -0.0024024101512162 101 96 92
-0.0081120662845862 -0.1326384184087269 0.4621948247722423 56 52 51
1.0785993830927634 -1.2832719316510683 -0.0080013953558040 139 131 120
1.1600485757232364 -1.1096989683716700 -0.0044196862139464 88 83 77
1.1600485757232364 -1.1096989683716700 -0.0044196862139464 88 83 77
1.1842903293040217 -1.0673509126656726 -0.0061260552470827 45 40 34
1.1980920167959959 -0.7947425144271700 0.1921156982235975 32 15 7
1.2002956132492038 -1.3180045530847129 -0.0061096158377455 45 40 34
1.2126388647724429 -0.6815232628323860 0.0313683839686281 113 90 76
1.2002956132492038 -1.3180045530847129 -0.0061096158377455 45 40 34
-0.0703618673887265 0.7957445421210182 0.1995227427073789 60 33 14
1.1048398480597279 -0.8082664458139137 0.1873335865078353 82 56 39
1.2436528319880176 -1.1861158969976868 -0.0061276081593934 93 84 77
-0.6065436719196710 0.8013449300865902 0.1834635040885180 50 23 6
-0.5854734990222168 0.7148218572349999 0.0289868999934884 33 23 21
1.1217463133901941 -0.5320895850023211 -0.0021603665620966 75 68 60
0.0044845004482531 0.7192400066365602 0.0504637057494032 38 25 17
0.1579992947217967 0.6907888605460762 -0.0722470494864169 24 23 21
0.5751491741427029 -1.0194451941987610 -0.0046158429763024 75 62 53
1.0085692334111003 -0.8055946358661684 0.1881122000971361 55 32 18
0.5743883909706144 -1.0250562142036470 -0.0082843723869857 77 64 58
1.0657051633461172 -1.1856559168713374 -0.0191767640165784 104 97 89
1.1582551828231746 -1.2693040827222133 -0.0009825406037381 96 93 88
1.1514841076443441 -1.2049847344883224 -0.0077846541144053 98 93 87
1.1953899761785658 -1.2317359834495685 0.0005970630891564 44 39 33
-0.6167376983129823 -1.2120950022784638 -0.0065157418107549 96 91 85
-0.5411959595490574 -0.7366114024753098 0.0233037607345934 37 27 18
-0.5978657309226162 -0.5331462403997593 -0.0087867712388117 88 81 73
-0.7970791328857987 0.7884071805544884 0.1858867940272400 65 43 30
-0.0210380636056863 -1.2813353892896251 -0.0085024086715393 92 84 81
0.5234752524462145 0.5788746004512294 -0.0102150201548031 76 62 51
1.0631590960838018 -1.0770156929685066 -0.0154569640301890 105 91 80
1.0622974314504561 -1.0743845636881248 -0.0186993614648718 105 91 80
1.2304909921615927 -1.1042127072019792 -0.0010530998506163 80 73 67
1.1037951731658637 -0.4627398298632109 0.0013986243912590 58 53 47
0.0493212023365355 -1.3293419635148611 -0.0445549556782022 90 86 83
1.0065266576597898 -0.7741418207579440 0.2050145276641410 0 0 0
1.0824028484023294 -1.2427228577043121 0.0110878695379552 121 111 101
0.6088848660110673 -1.2518132450108468 -0.0025410245954860 114 109 103
-1.1756880658867379 0.7914351219761860 0.1890190112090720 37 18 11
0.4565577722981773 -0.7216813489527241 0.0240230212408699 4 0 0
-0.5100874577878126 0.5929525183415261 -0.0019808238054678 79 66 57
-0.5097841253033195 0.5934740103529967 -0.0020912593379178 79 66 57
-1.5777329641558111 0.3612537685004458 -0.0045988832607934 87 69 57
-0.5747852320571596 0.8262198353168693 0.1888146465075708 99 69 59
0.0747559762370814 1.2265969324227899 -0.0034595523995826 62 51 45
-1.1310205684314989 0.5936966726137802 -0.0054838730140485 108 91 81
0.5599872599171148 -0.7788510357555530 0.0458273195080874 97 80 73
-1.1467359319001680 0.6293508246084355 -0.0033869525949504 100 81 66
1.5965853666263576 -0.7861300781277906 0.1895726381666024 73 42 24
0.6516919245991256 -1.0581396370559235 0.0002353438772142 53 44 37
-0.0895994094289371 -0.7296425927828706 0.0274466580033882 105 73 60
-1.1706262721814480 -0.1200909265083785 -0.0035852351112693 52 47 41
1.5862592543677643 -0.7745911908131785 0.0425310929770581 65 52 46
-1.5863494457432328 0.2446351312501761 -0.1889408053060725 19 18 16
-0.0590250532807884 0.1787795938437260 -0.0027797707775447 78 71 65
0.1254897181379938 -1.0130415293402861 -0.0029528915950063 99 82 72
0.5519037867550871 -0.6496389105436114 0.0063107005820902 78 60 48
-0.5616828412804733 0.8935528810695511 0.0198636989212632 79 57 46
-0.5589234257008209 0.8244048513158974 0.1888987088372185 103 66 48
0.5678837895087150 -0.6515224325464319 0.0030782688708867 77 60 52
-1.0581360930924968 0.8183997878278862 0.1861983411414941 64 35 19
1.6418103454427000 -0.7414840306529891 0.0345224384112812 91 72 65
0.7913632753656755 -0.8281285691336927 0.1880124470330842 102 76 61
-0.6625788395588533 0.8855933039486593 -0.0126362331014980 71 47 35
-1.0091230953186372 0.5089003168968919 -0.1279373552013744 21 17 14
-1.6624901349413148 0.5982202892886819 -0.0049194958265909 89 79 70
0.7008303654688969 -0.7749521602783029 0.0423600797916352 62 51 47
-0.0285431854835507 0.2005101426154829 -0.0022433961177196 78 73 70
-1.1492057707740551 0.8719615689027991 0.0319792192777661 4 0 0
0.0715604572921797 -0.7733325597304230 0.0428989753960200 104 85 78
0.5922497502059518 -0.6477524542192292 0.0031855106221282 81 64 56
-1.1817872562763072 0.9321224134626800 0.0119835678248937 107 79 65
-1.6605724820166718 0.6537854968817689 0.0119976468757072 98 72 57
1.7052806385210870 -0.7528905875961760 0.0385789575961298 74 56 46
0.6286454790907093 -0.6497243114614575 0.0054577022939014 73 56 46
1.1072818544063212 -0.6515881964183685 0.0037044839196409 77 64 56
-0.0688143133797652 0.3039315988812614 -0.0065840073750449 146 134 122
-1.5816593494274278 0.5903411445342821 -0.0118843013644753 104 87 77
-0.0657348834942726 0.9691605326561432 -0.0103362217430753 125 102 84
-0.3338219360429915 0.8174046589878872 0.1891634542865478 70 42 20
-1.6028599443957394 0.6522347639042507 0.0079817314427613 24 13 7
-0.4615374851902154 0.8879705864007189 -0.0058327151365030 70 48 35
-0.2897224427715718 0.7712109851077177 0.1873099442027924 77 42 23
-1.6125298649861748 0.7110369829126950 0.0227616145594741 3 3 5
-0.0546066167705202 0.2173327139945057 -0.0031277754221773 74 65 58
1.6677390952103703 -0.6505688509712028 0.0055098484565851 82 65 57
0.1494348949220561 0.7022747546347126 -0.0046544425925964 121 102 88
0.7205375184283677 -0.7806356573396150 0.0619199066998715 85 66 59
-0.0596113728761085 0.2532869617475817 -0.0047923631898006 101 92 83
1.1474764976799054 -0.6506225200134420 0.0048352173700151 82 65 55
0.6474601698127317 -0.6092077492471242 -0.0038042038878075 85 71 62
-1.6812929376941770 0.8821416515134133 0.0249288100326972 3 0 0
0.6374984146854245 -0.5692893355737150 -0.0027959583828747 78 69 62
-0.7746343191786911 -0.7539350021321112 0.1728479434090208 10 0 0
0.8251241158197092 -0.7750327520415671 0.0411672590481499 78 61 54
0.4916870979702714 -0.3387730024038424 -0.0027443531955401 121 114 106
-0.2324837379194500 0.7814614443216494 0.1878124214958307 88 57 39
1.1578940769214978 -1.2354241174483875 -0.0033199588290430 96 91 87
-0.5303800384017908 1.0995819669916609 -0.0030910132872175 91 86 82
-1.6875050725387022 0.3857365306021504 -0.0008872071535115 65 57 46
-1.6781578019316221 0.3796970898558632 -0.0068171680848791 103 98 92
1.1751729426297453 -1.3328172233877109 -0.0111297451895497 95 92 85
-0.6220336612161930 0.8804244746575829 0.0194309144374430 81 55 42
-0.6011471023872794 -1.0850472915724572 -0.0073041589383903 99 92 86
-1.6582375168872372 0.3718156691196555 -0.0050356958173031 103 98 92
-1.6556314845666942 0.3719333108985647 -0.0023343695405058 103 98 92
-1.1400272826091951 0.9041288132537800 0.0152377499054847 73 50 36
-0.0135456202300511 -0.6514545314220409 0.0025333440160082 73 53 44
-1.6880714555085681 0.4296353741997145 -0.0048300642235313 60 51 44
-0.4435985712732716 0.9406505526831480 -0.0043338154617603 85 62 46
-1.7382325904372302 0.5241873596358907 -0.0020283985081905 114 109 103
0.0278426533793739 -0.6515407697366212 0.0024142628470360 72 55 45
-0.6408907323634671 0.2827696955568253 -0.0028944737183107 102 95 89
-1.1787482802255058 1.0587318014106424 -0.0027808405736440 110 105 99
-0.4671969387565577 0.8400907612042952 0.0314390717274594 85 65 54
1.3729078115648241 -0.8117448779435592 0.1887186209991250 75 44 24
-0.6668807537512037 0.3806704943998374 -0.0027573991081905 141 128 119
-0.3845371528072398 -0.7710459930765696 0.0411311165941475 81 58 50
-1.5702158936510107 0.8565373621036936 0.0316428548820262 99 81 71
-1.1947040249370056 1.1097597136198056 -0.0028182301594428 97 92 86
-1.6487156603984685 0.5155390318058288 -0.0063428654561162 89 84 78
-1.6468207111982278 0.5155052996533654 -0.0026665001222362 90 85 79
1.0329585635241447 -0.4191447151761274 -0.0236863604831425 69 68 66
-1.0079950192823917 0.8769352487278405 0.0064828413087729 90 68 54
-1.7423639784504381 0.7087838888807926 0.0330451261516486 10 3 0
-1.6324800922376035 0.9415572912057759 0.0072959257083378 66 44 33
1.1949681751012138 -0.6008621652036944 -0.0051994952232873 91 73 63
0.1242895184685269 0.8876929042809348 -0.0092509617598160 78 56 42
1.1696049789448841 -0.5446619333754626 0.0079196084446836 91 86 80
-0.2424604383382283 -0.7609635601296634 0.1828098232311146 137 109 95
1.3361542910437170 -0.7508466162323603 0.0397920657145603 79 55 43
-1.6053437561987418 0.9350785366911315 0.0017967747960871 29 20 11
-0.6645104346098503 -0.7438089728250886 0.0339570590779671 108 86 75
-0.0718786987597646 -0.3900899571958982 -0.0066060463879103 123 107 92
-0.6645104346098503 -0.7438089728250886 0.0339570590779671 108 86 75
-0.3388954497771154 -0.7565602855652920 0.0368260110446505 72 49 41
-1.0220043532791607 -0.0634536080864242 -0.2149130391305085 26 22 19
0.1236676170801314 -0.6415737541281842 0.0003719605810277 91 67 55
-1.6051632789549288 0.5412653310928137 -0.0016948057501960 89 84 78
-0.2916438436693047 -0.7826397375633077 0.0645235165961493 70 52 42
-1.6572888995059423 0.6270757903764778 0.0033403515698441 94 77 67
-0.6567237450211360 0.4398841806603841 -0.0034893874736471 82 75 69
-0.5835695135947512 0.3538443919892126 -0.0036998823806104 64 59 53
0.0968440904515739 -0.5793999784231290 -0.0027308978370312 73 62 56
-1.2375795400062186 1.2662896176793446 -0.0042014978317451 109 102 96
1.1013478503724339 -1.2984789440531559 -0.0023532965381500 83 78 74
-0.5872297445859462 0.3927751943033591 -0.0040636810198869 117 110 104
1.0415352188827791 0.2695203168650918 -0.0065682849997213 137 127 117
-0.5990963580615385 1.2128205494312239 -0.0027549666764229 99 94 88
-1.1986463853937985 1.2481789468117359 -0.0039074247855446 66 61 55
-0.5662503725826934 1.0440510672119681 -0.0032287036019385 68 59 52
0.2901763879658734 -0.7531109961498239 0.0359800045429828 79 55 43
1.0974336013778441 -1.2316207787106421 -0.0016801126060458 80 75 71
-1.5806970671913978 0.6233061158790544 -0.0066981648603350 106 88 74
0.0404749436965802 1.1336813675888628 -0.0038450653410284 64 55 48
1.4201813862964037 -0.7517437343136046 0.0387209847169511 79 57 44
-1.5439215383634821 0.8174198144744977 0.1883759646775766 56 27 9
-1.5750739749606579 0.6218533760708471 -0.0610302289371735 20 16 13
1.4676239642309428 -0.7754071291874205 0.0441599602172686 69 52 45
-1.5483760101518995 0.9242317262197866 -0.1306691175404886 75 57 47
-1.1763825907694563 1.2828759827024783 -0.0043822327895403 118 113 109
-1.1921823695739679 1.3058807483604968 -0.0041967361898006 103 98 92
-1.1978367606318789 0.7583300974587885 0.1811648668979672 107 75 60
0.5411843520875805 -1.0665804056087462 -0.0025666123114867 96 89 81
-1.0022637287761718 -0.7295855648112437 -0.0754040002678714 17 13 12
0.4142477818937158 -0.7493952344525994 0.1548716719632044 58 39 32
0.1316999204168239 -1.1876740912450399 -0.0000288714736591 80 73 67
0.5333567852120004 -1.0087499472309540 -0.0041227390110294 82 65 55
0.5333567852120004 -1.0087499472309540 -0.0041227390110294 82 65 55
-0.1656511032308106 0.7511620323208025 0.2001534736439283 74 56 44
-0.1847103106331238 0.7912840640345362 0.1880620120857310 82 56 43
-0.1847103106331238 0.7912840640345362 0.1880620120857310 82 56 43
-1.1707401244429314 0.8106215308012913 0.1905642612378058 82 55 38
0.0145973204312198 0.4282089077545536 -0.0033769585990044 102 97 93
-1.0538192087172555 -0.4908323474711120 -0.0009131162929261 78 71 65
0.4531315540775563 0.7587172255450190 0.1843228769405421 111 79 64
-0.1779198954738327 0.8040359955137869 0.1891419921502961 82 50 27
-1.1229174501463797 1.3091429250004336 -0.0028962332511541 74 67 61
-0.0261682236861445 1.3704048632435186 -0.0034167719830320 119 109 99
0.0354791428872913 0.4197306048842738 -0.0036503980262917 100 96 93
0.0354791428872913 0.4197306048842738 -0.0036503980262917 100 96 93
0.0190821431059832 1.3172828693800829 -0.0024717171038812 50 45 41
-0.4578235083423000 1.1077389936121607 -0.0039932354205900 73 68 64
-1.7643080242210343 0.5017325266834762 -0.0128734838214598 94 87 79
-0.0049737716146586 1.3694834755399696 -0.0036930192498973 149 142 132
-0.5751414800643191 -0.6456849167777917 0.0141138346654715 69 52 45
-0.1695220064290560 0.8250790484089432 0.1726889242281080 102 70 55
-0.6291074700219246 0.7865770792365748 0.1878956636798135 57 29 15
-1.5720031695126699 0.6650162879258351 -0.0515233910492735 20 19 17
0.0379683681782842 0.4552687373010246 -0.0029468997059828 111 106 100
-0.1115259846570320 0.7599506861644307 0.1899791967367362 116 84 63
1.5645379818662362 -0.7503645417384638 0.0391372844673372 72 52 43
-1.6521832574923114 0.8729296824754476 0.0261079642903638 1 0 0
1.1885663611994097 -1.1903364821663178 -0.0009903381647091 96 91 85
-1.6521832574923114 0.8729296824754476 0.0261079642903638 1 0 0
-0.5590527126270001 -0.6515954240821636 0.0014740076643002 68 49 42
0.9173259013319717 -0.7256043893812536 0.0176002125360618 4 0 0
-0.6342761021752955 -0.5282602311531989 -0.0078831427275047 68 63 59
-0.5625749290079466 0.5968172062082827 -0.0038197540872547 96 78 66
1.2054268776625194 -1.1831312074772251 -0.0009117201313735 90 85 79
-0.5502837324604901 0.5994258113553869 -0.0025851980324033 73 59 48
-0.0712772155471141 0.7690426350042474 0.1884477864673997 61 29 14
-0.5756247705898467 1.3757517068131062 -0.0038776467937300 52 47 43
-0.5756247705898467 1.3757517068131062 -0.0038776467937300 52 47 43
0.0609763187121092 0.3967434492194831 -0.0025081148638033 104 97 91
-0.4426151818457073 1.2021747731605481 -0.0033774877162885 88 84 75
-0.5482636530696918 0.6195809677273649 -0.0034703510761941 81 63 53
-0.5481989276231299 0.6198437272060692 -0.0029360687862390 81 63 53
-0.0911182502186581 -0.1306744070835022 -0.1835696836404605 60 59 57
0.4770153179664318 -0.0560733315073933 -0.0047253268726283 96 89 81
0.6732643777640953 -0.3209893167783320 -0.0027324189715491 48 41 35
1.1214130161103169 -1.0181581476564630 -0.0120697826919645 64 51 43
1.1193104669294471 -1.0118133079480240 -0.0033952195714335 57 44 36
-1.6113876785590835 0.9310394104572788 0.0117903945833342 94 64 53
-1.6489217592168277 0.5442763390711423 -0.0101025316200919 83 78 72
1.2299087544824789 -1.0483213124744559 -0.0034957853272838 73 64 57
-0.2126449735239727 0.8458504822577391 0.0355472147791790 95 73 60
-0.4595611811838914 1.2884909283379837 -0.0032712181274300 71 67 64
1.0583585399685145 -0.7763638848791601 0.0421594722605922 68 55 49
-1.0104899159372631 0.1250304276026302 -0.0035303799212027 143 130 121
-0.0523652559922213 0.8254744609389481 0.1895880322568950 104 77 66
-1.0463729556762738 0.1855521250764819 -0.0031417677807060 98 89 82
0.0472692789037416 0.6177555053390542 -0.0018647483052409 88 66 53
-1.0200082052671335 0.1719641532824127 -0.0029643060001122 87 78 71
-0.0442009496614847 1.4360191533648385 -0.3912103458636484 95 94 90
0.0179155460719993 0.7999470846198184 0.1879637904087189 56 27 9
0.1416742435863239 1.3276394228852682 -0.0028446718755210 57 52 46
0.0679719099777154 -1.2765258796502388 -0.0086701847400566 65 61 58
-1.3115129277437880 0.8276933151540381 0.1882917367562512 134 102 89
0.0159352490205435 -1.1564272731369583 -0.0013864335592196 98 93 87
1.0343070061962893 -0.5872783775904939 -0.0384707450476285 91 80 74
-0.0450269201585328 -1.0485850674182797 -0.0001223695302848 80 73 65
1.6577063528360887 -0.6475802332293324 -0.0148295404258988 98 79 65
-0.0625414389879353 0.7720184430146536 0.1906120590660451 74 39 20
-0.3879632063520295 -0.7579979751771542 0.1642461269262244 3 1 2
-1.1895098334876486 0.7701256880014474 0.1885475722349693 78 43 23
1.6917492666193785 -0.6496796998224706 0.0061594027940901 72 55 48
0.0897444822836458 -1.0219431038143130 -0.0024846883761320 97 86 80
1.7056189942577182 -0.6471048978318552 0.0121229693340235 80 65 58
-0.9154445142083621 -0.7765376067348625 0.0450236596365010 94 74 65
-0.4953783611321745 1.2806451188117558 -0.0026158999709714 89 84 78
-0.0690153397577591 -0.7358285807838594 -0.0054900834436151 18 5 0
-1.6160686833315681 0.8814522091721505 0.0258114838211228 86 60 47
-1.2326053676592308 -0.3090616270335533 -0.0030656252807134 91 84 78
1.0422135381765854 -0.7241048086770681 0.0192569400503625 4 2 3
1.0422135381765854 -0.7241048086770681 0.0192569400503625 4 2 3
-1.0349872207464947 0.8499934376533527 0.0343360557892118 92 74 64
0.1397565527096500 0.7238451348079266 -0.0011973951995488 31 19 19
1.0720380678023043 -0.7617295885489411 0.1832176636095420 89 59 48
-1.2291286709206102 -0.1594163086800950 -0.0035479454016144 124 117 111
-1.5747521949669057 0.9624296171239382 0.0046450006589065 110 88 74
0.4805823901322684 0.2788629178844316 0.0008047132458314 73 66 60
0.0338110346875608 0.6352663665637738 -0.0025059645106160 117 95 81
0.1860590507822552 0.7993765076203623 0.1929977808724383 25 8 0
0.2175180901167488 0.7607282591005207 0.1886993092453019 103 70 51
1.2535311864816121 -0.7093333231378390 0.0147515590796102 69 53 38
0.1192105959024953 0.5847160652345302 -0.0037538528720157 55 42 33
-0.1468315952549753 -0.7715573136061062 0.0408072270694783 67 52 45
0.0241357951169494 0.8295569647813795 0.1843943629539206 128 97 79
0.5740123790342290 0.2544358022275069 -0.0021814587236357 97 90 84
0.5736645631068461 0.2547679492493875 -0.0027106496450452 97 90 84
1.3609153472726037 -0.7232464580045864 0.0254453605930162 20 15 11
1.3609153472726037 -0.7232464580045864 0.0254453605930162 20 15 11
1.4775573655395602 -0.8191255498257840 0.1885207653549674 46 22 12
1.4737577537387825 -0.8029179681011440 0.1899747323957436 71 43 21
1.3190931615604535 -0.7689825287047113 0.0410135749954341 80 61 54
0.3817292303812053 -0.7524812997895134 0.0363218657353155 77 55 44
0.1006427251404611 1.0646826272252090 -0.0027408914300859 91 82 75
0.1006427251404611 1.0646826272252090 -0.0027408914300859 91 82 75
-1.0759514019367009 0.6207793807992622 -0.0252865943655557 75 55 44
1.4304982686474612 -0.8172088373284452 0.1875586804806334 44 20 10
0.3041253414787082 0.7467071229358813 0.1667229221610789 77 57 48
-1.0079324777555394 0.7589517781821027 0.1852333261751117 104 76 64
1.5051068103384175 -0.7649962412699953 0.1859035879869614 118 90 76
-0.0395921460843644 1.1704742535844188 -0.0045448607145354 64 59 53
1.1076350414567979 -0.2631258934604347 -0.0032725158720344 61 56 53
1.4665123316055302 -0.7352745921155270 0.0367253333976754 108 80 68
1.3946180953910181 -0.7553168093308131 0.0347220456475333 77 54 46
-0.0365864591888444 1.2401553037110560 -0.0031001394035611 62 57 51
0.0722783907052459 1.0933888124787086 -0.0028891232872461 63 54 47
0.0843154637805623 1.0970776189246336 -0.0017448173884983 79 72 66
0.0843154637805623 1.0970776189246336 -0.0017448173884983 79 72 66
0.4010690927400205 0.7587230151296954 0.1854278010866132 110 81 67
0.4661672396595246 0.6080790335940143 -0.0092313641530931 97 78 64
0.1309195355485254 1.2253560705786808 -0.0043904856304202 65 58 50
0.0540340503206140 1.1836734392324773 -0.0054990442584633 62 55 49
0.4559287135259272 -1.1779870692847882 -0.0040940507980481 71 71 71
1.4691748993013434 -0.7532066703522033 0.0346158449323582 79 59 48
1.2033048260892585 -0.2370841734588612 -0.0039174894338243 94 89 85
1.5758651904506575 -0.7379552680336856 0.0331730115138554 101 69 56
0.1229225118410584 1.2685134297203333 -0.0018558554357422 78 71 65
1.5952207318304572 -0.7379091391125976 0.0315511461476385 116 88 76
1.5997081694788053 -0.7147299008246402 -0.0060335857366119 114 87 68
-0.0173265615460292 -0.4470277975295154 -0.0078170632889450 94 89 83
-0.0169105024979724 -0.4454670802420497 -0.0022817089704698 94 89 83
-0.6293708656243528 0.3965383355661500 -0.0039815805408076 107 102 96
1.6748885258466999 -0.7686032108109914 0.0464217503999493 71 54 47
1.2504736342374116 -0.1459532725750339 -0.0066093395592138 82 75 67
0.4695945617869914 0.9750367779303871 -0.0051141563055438 133 111 97
0.0511385089978419 1.1059073092008065 -0.0040978011543427 70 63 57
-0.0425592768455255 1.0032535519775483 -0.0036690291277006 58 45 36
-0.8782232535538257 -0.7385699185267035 0.0314069507533468 104 78 65
1.4494990938254695 -0.7808964784322795 0.0552333011202394 86 66 55
1.2580662115148922 -0.7410287644299284 0.0321617671083965 99 71 57
1.3236581697884995 -0.7565775683262217 0.0438065034548496 83 61 50
0.4881604012809348 -0.4471828784294056 -0.0031825629407326 63 56 48
-0.0024103687110787 1.0746539809049149 -0.0024090740863744 73 64 59
1.0511772846821770 -0.1662745015588780 -0.0059974157380121 155 143 131
-0.4111946541210526 0.8553785463462287 0.0089509037512934 92 62 51
1.5233083137305983 -0.7318284585494949 0.0149807057978922 4 0 0
-1.5960868185152526 0.8732372556978218 0.0223805135973082 37 28 21
0.0230020816382581 1.1866709716089032 -0.0041882387866538 59 52 46
-0.5166124887258909 -0.7614203869767954 0.1771147008678385 126 97 83
-0.5432162602334637 -0.7482265684443739 0.1617018213533354 18 9 4
1.5946818091845998 -0.7799508264984520 0.0621981179375986 91 73 63
1.0941895296726944 -1.1704814561054542 0.0014627624832208 86 81 75
1.2178611041551513 -0.4291369850036559 -0.0033845459613128 110 103 97
0.8373615692195803 -0.7735488429204026 0.0673860306690373 85 68 58
-0.4989015971207794 -0.7460391469756703 0.1574797701074103 13 5 2
1.6112233289369149 -0.7216041910220736 0.0299370970252429 1 0 0
1.6112233289369149 -0.7216041910220736 0.0299370970252429 1 0 0
1.5393566561638747 -0.7386719915642126 0.0344124491233496 103 75 64
1.2334053417369399 -1.2385124148633473 -0.0002750832575638 104 97 91
0.5965908261216802 -0.7768498946345564 0.0531260904150089 92 75 67
1.1945411416952645 -0.0575347177022168 -0.0060655580297597 87 80 74
0.1080475091461546 0.4683591368940748 -0.0024598734132919 72 67 61
0.5800350025655706 -0.5907113029882453 -0.0018854994790839 84 74 65
0.0214442006064193 0.7619436621096138 0.1829784784375446 111 75 59
-0.4864338698432622 -0.9853457305801131 -0.0020214304967563 79 65 54
-0.6819448250045080 -0.7983474131940635 0.1893970993959809 59 31 20
-1.5690711897260565 0.7884544566530959 0.2022284321224553 52 30 17
0.4738352692140291 -0.3643840373406276 -0.0061950937907726 106 96 87
0.2188122825144747 -0.7787871995926162 0.0558812033156517 87 69 59
0.5804107332481713 0.0505729277974201 -0.0042267425905325 50 43 37
-1.5704363620808408 0.4169848848869628 -0.0242631599534714 15 15 13
0.9702662471071136 -0.8030208245692847 0.1879612185594129 58 31 14
1.2490800434844131 -0.7825403603501495 0.0574139712245353 89 72 64
1.3246647539829128 -0.7797974810469432 0.0571453823569692 89 69 60
1.2725777142242189 -0.7455704135057807 -0.0212843078234449 1 0 0
1.1518775106614036 -1.0418825974649621 -0.0060191464459486 80 73 65
-0.1517831020156026 -0.7608203631903587 0.0356446625927331 76 56 47
1.3790167505514088 -0.7730304787872345 0.0719364688752649 86 66 59
0.1404719478631697 -0.8187830234536969 0.1910653755555418 73 41 26
-0.4993471357401231 0.6324172015108140 -0.0091533367834085 101 82 68
-0.1600701664523443 -0.7858860322598205 0.1897623889036774 55 29 16
1.4878967297966068 -0.8128896731445882 0.1916069320216507 51 29 16
-0.5144346110932270 0.8619395793149049 0.0342583100633697 0 2 1
1.1275582353116596 -0.5937290780457742 -0.0062771255939381 53 40 32
-0.5082059966916059 -0.3733763298433029 -0.0056209657774105 89 81 78
0.5068886481707104 -1.1757856943305460 -0.0019777561181341 59 54 48
0.5068886481707104 -1.1757856943305460 -0.0019777561181341 59 54 48
-0.0052719896733170 -0.5519529499931417 -0.0021037671714045 87 78 71
1.2450534394110513 -0.6136523196548413 0.0013445704890820 108 86 72
0.4261190770171822 -0.7833266632935532 0.0462073621914294 89 69 60
1.2381473222890347 -1.2770294414602295 -0.0036143097660723 95 90 84
-0.0186112110069009 1.1104107411714632 -0.0060700751709797 57 48 43
-0.2242752199702052 -0.7623735182314725 0.0327537365530085 90 65 58
1.6094460529251517 -0.8048499417719788 0.1916351103271717 60 34 19
-1.7427112955581667 0.4442122492038907 0.0045261140631855 111 106 100
0.4573281330477588 0.7856592341977023 0.1887732735994349 82 49 30
-0.0669897909862764 -0.7609830088544550 0.0426442585754365 92 69 61
-0.4993857368000346 0.7137771277566630 0.0300974298310701 19 12 6
0.0870216843577366 0.7149912327962508 0.0373886352505060 32 25 19
0.0118793387592998 0.8600411993628685 0.0202131864821774 32 21 15
-0.5708630998387215 0.8630669659442429 0.0170917704153510 31 20 14
-0.4197755855653566 -1.0265618853355709 -0.0758556958224684 21 20 18
-0.4197755855653566 -1.0265618853355709 -0.0758556958224684 21 20 18
0.1766271115192357 -0.7617032992628247 0.0443756509621401 90 70 61
1.1047022931675723 -1.0097420503512671 -0.0002844404079952 77 64 56
-1.3975601010939964 0.7924963742005413 0.1892838276101342 63 37 24
-0.4214201083409870 0.6774016322004494 -0.0810081957853922 23 22 20
-0.6316163131136724 0.0236812843136734 -0.0048203548357219 81 76 70
-1.0069386077130449 0.7930593203196903 0.1841892469922912 55 35 24
1.0193353765032493 -0.7582215793670289 0.0513132962281918 87 67 58
1.2287853017071342 -0.3788083705824403 0.0001058420109271 100 93 87
1.0983681328832207 -0.0727175282457329 -0.0052651186563886 52 45 39
1.1957389573420294 -0.1233790103776351 0.0026076091089536 88 83 77
1.1973368133112481 -0.1255267459873121 0.0051304436656529 113 106 100
0.5002890703107126 -0.1754559230884893 -0.0064351855932098 109 102 96
0.6077666910379751 -1.2534189984045079 -0.0080864144991265 114 109 103
0.5871760157128723 -0.7551964539856137 0.1489659983057874 52 39 30
-1.7517836654157906 -0.2521439473395188 -0.0012624545238589 102 86 73
-1.1767415151844989 -0.6498470559350517 0.0059421096072153 64 46 36
-1.1884001413965781 -0.6411721693891387 -0.0033878921960209 100 74 57
-0.4598066786034988 1.0367532778644186 -0.0031870774398844 79 70 63
-0.4424342861620409 -1.1561823797563062 -0.0025153580344243 85 77 74
-1.1136329026025780 -0.6556365922898226 0.0160854365316042 124 90 78
-1.1381208296402527 -0.6514025309704302 0.0006875938411885 64 46 36
-1.2358006273273132 0.6283579932041183 -0.0027445052502350 81 61 50
-0.0695188291299834 0.1703306536440962 -0.0075643048163726 141 131 121
-1.6295062132766942 -0.2366468727688338 -0.0041421234954087 75 65 56
-1.1881448194230331 -0.5783076989164799 -0.0007574085124656 96 82 73
-0.4595799615751603 1.0719244962306234 -0.0033312235605231 73 68 62
1.1190238661216310 -1.0111447238183640 -0.0034525618983153 61 48 39
-0.5371243306466722 1.1286278380117383 -0.0022117204701329 76 70 70
-1.3554270362278888 0.8272891558015062 0.1839200561724814 124 91 74
-1.2340902418450528 -0.5267077665512894 -0.0034088346906262 56 46 44
-0.0217837293778165 0.1495197463750012 -0.0030145152208272 40 35 29
-1.5743358804188039 -0.2634409091664380 -0.0007476295785770 90 73 63
-1.0504719868075272 -0.6422632405692726 -0.0048832466847493 100 78 64
-0.0112653644879534 0.1452232710025532 -0.0029287592126154 86 81 77
-0.4878835338281807 0.4909288611428161 -0.0037940355725662 79 71 68
1.0302982200624917 -1.0165833612307220 -0.0263820563144299 75 66 59
-0.4666800014934039 1.0974680135422648 -0.0032693153074514 102 94 91
-0.4297684795852695 0.4562184386850132 -0.0041637435075244 143 129 118
-1.5884254714091952 -0.2154770052988907 -0.0036636249623908 78 68 59
-0.6089047189672991 1.2132101645495954 -0.0029701049693309 55 51 42
-0.0029280799230654 0.8288749922808549 0.1872949658439559 120 88 75
-0.0274461371160286 0.0249609962087896 0.4437585385586499 66 62 61
0.0304280476918726 0.1500565951190850 -0.0017436121351200 73 69 66
0.9693570972800194 -0.7529990650707014 0.1769975033866975 3 0 0
1.0392207195519887 0.0315814488929546 -0.0105536867086461 150 138 126
1.0815993226046965 -0.8248816838570103 0.1846681582432292 77 46 28
-0.0049164360709510 0.1885636929352788 -0.0022975821695151 57 52 48
1.5985323512913903 -0.2905704032988338 -0.0722499903618519 80 73 67
-1.1367560111876145 -0.4609626825134112 -0.0039521475746034 117 110 104
1.1687988467723847 -0.6510254892486886 0.0038114463834686 73 58 51
-1.1185964095855916 1.0112766168286436 -0.0028828018994049 68 55 46
-0.0717364950972290 0.2515874694334270 -0.0085426261558488 142 133 124
1.6019382289303812 -0.3381081904346479 -0.0062367314086174 125 107 95
-1.0186053321154707 0.2916760143326299 -0.0030216060930308 69 60 51
0.0580907295393408 0.8360324717830316 0.1659725036662410 58 40 30
0.9163554738812609 -0.7552407136851378 0.1791891309473709 6 0 0
-0.8142183439299391 0.8302316728922807 0.0337424861566243 68 53 46
-0.5480410861965274 -0.7824017561896486 0.0713051380888165 65 48 41
-1.1776059729545905 1.0823908987732906 -0.0032401904702214 135 128 120
0.8741799418216673 -0.7699278724381852 0.0438070077526852 82 67 62
1.2600620598706180 0.0283307568845710 -0.0052368980132114 72 65 59
0.6848660765945737 0.3592339091732789 0.0005681895058725 88 78 69
0.0546935259643630 -1.2443096636240814 -0.0007992231393255 95 92 85
-1.2275874585260476 0.8315329294557424 0.0123472495851727 85 65 58
-1.2505322094876117 0.5035378056493679 -0.0043451101480163 136 122 109
-0.0785625153824814 0.9333249017583792 -0.0205236052037515 0 3 2
-0.4525262647673333 0.6046063600515593 -0.0024062801550529 81 66 59
-1.5122004135466869 0.8173541709136943 0.1846363976471941 83 51 30
-0.7468777637309261 0.8457373101072939 0.0339358786924165 75 53 40
-1.7094281752093967 0.0835650798906104 -0.0039664537738555 111 106 100
-0.0612301261976802 0.9379978023669048 -0.0016171746788873 123 101 80
-0.5370332765997001 0.7580585061928666 0.1836792749463393 117 81 59
-0.6303621260126646 0.8278709109713303 0.1843014846709799 126 94 81
-1.7766010923782822 0.1765856376160849 -0.0042984879553823 53 48 44
-0.7350495168734196 0.8588213191644285 0.0267602827521722 93 70 54
0.0216576888742882 0.9042625329708822 0.0181027366343763 77 50 39
-1.7910891174890158 0.2130253473270524 -0.0130357453866637 133 120 111
-0.5044979877600885 0.7590309866749264 0.1857666617831096 116 83 66
-0.5991141213720285 -0.6511429879031133 0.0037559776972185 64 49 42
-0.5009630770742006 -0.6909744541318998 0.0192047614570698 108 84 72
-0.4209738639505940 -0.7554240692301417 0.0298699963143812 81 54 43
0.1766319591821097 0.8336594669610777 0.1692107958762162 0 0 0
1.0297857693628032 0.2803442809410425 -0.0109229228369015 89 84 78
-0.5570475956643752 1.3349612177525296 -0.0026368023166264 111 104 98
-0.2049773297656279 -0.7579044003721350 0.1686545096689419 5 1 0
-1.1994093086191009 0.8357316535154853 0.0262515841912946 82 62 53
1.5184338999788027 -0.7298813105937925 0.0335023657170193 17 10 4
-1.1344955349941868 -0.2031063821067986 -0.0036714919368246 144 137 131
1.6678369881488675 -0.2561820794163213 -0.0057445692655433 107 100 92
-0.0827416647912974 -1.0115297984830616 -0.0725127750365853 114 100 89
-0.5143305394002285 1.3323145599599813 -0.0035783722485211 103 98 92
-0.5419415828959796 1.3519240849695844 -0.0027683920464499 101 96 92
0.4783889601524952 0.6236617868243486 -0.0011319701703008 88 66 52
-0.4448169030814932 0.7808121366001587 0.1894312358702073 100 64 42
-1.2435196165012441 1.2982400434359702 -0.0035665896845523 65 58 52
-0.5794180936665995 -0.5581737035818003 -0.0002984376902930 92 82 73
1.0322641106720836 -0.3634517257282186 -0.0369235599899286 53 50 43
-1.0574770504208351 -0.2083490165920553 -0.0040516448100327 78 69 64
-1.5758839651417720 1.0229838872472770 -0.1988666870364359 75 74 72
-1.1553009969492736 0.8347461774576580 0.0344122539902589 75 58 50
-0.3435063143505994 -0.7234046587196867 0.0210165821122754 5 0 0
-0.3434317471789090 -0.7241817112516601 0.0197599078264236 5 0 0
-0.4365914722004318 0.7196442899120182 0.0045111435163004 92 56 34
0.1296178408444043 0.8972063891737186 -0.0018283154426023 98 72 57
-0.1348252896839522 -0.7519297242919990 0.1789375629918700 1 1 1
-1.2326395118722073 1.2980129732120838 -0.0037144160030483 101 96 90
1.0770405138479471 -0.7411114303206507 0.0314399154436523 93 71 60
-1.1771829926639259 1.2596576394651635 -0.0034291478005370 125 120 114
-1.2024791114524207 1.2946830176351425 -0.0033984998082466 57 54 47
0.3973800010789799 0.8353128815083378 0.1820833303058118 54 46 43
-1.4415799314256350 0.8263101250027858 0.1865836603743107 136 103 84
1.2522105209048389 0.1954386203433874 -0.0112962155660201 88 79 72
-1.6659901209342776 0.2889767495979928 -0.0074708408865921 100 93 87
1.1763532927828171 -0.4114389639287004 -0.0027562310286281 104 99 93
-0.9939338665432557 0.8329068681971955 0.0263742144312213 89 70 56
-0.2108551680999990 -0.7223554120147836 0.0199117385586761 1 0 0
-0.2105781115424674 -0.7255270716460235 0.0159706206433290 1 0 0
-1.7153595077198971 0.3547825024267213 -0.0022093688345829 122 113 106
-0.5820364098763068 -0.4622534704028367 -0.0019839142467562 101 94 88
-0.0550055226240453 0.1452490665025113 -0.0026438590439372 71 66 60
1.1181417293278277 -0.7389302672813719 0.0347293835690873 0 2 0
1.8237456636595273 -0.1783294396158641 -0.0016095426978398 110 103 97
0.4670239307445286 0.1195102186735645 -0.0052923029015596 130 114 101
-1.3710175348203391 0.8292073761439160 0.1891676768495351 118 86 71
-0.0683028786070718 0.5057521454925151 -0.0069858769522570 139 123 110
-1.7136854534893615 0.3818528427623964 -0.0041114275084995 69 57 45
-1.1119803476398931 -0.0484547440478678 -0.0024756658610913 93 86 80
0.1958862239761407 0.8582667420186754 0.0296757269872730 103 81 70
-0.4881043913258853 1.3476042066897915 -0.0034957171651690 47 40 34
-0.0688566616143695 0.1169610479262409 -0.0044636330746304 137 127 118
-0.3128926544511334 0.7585740702016437 0.1832421332283573 112 79 60
-0.6022706906652420 0.9138816384056107 0.0155064537837394 106 78 66
-1.0829984513134614 0.5363563302953552 -0.0046479038843241 109 102 96
0.2891337727077454 0.8358337610344477 0.1959396848744112 3 2 0
-1.1456832193098114 1.3050229211035078 -0.0011315229715494 78 71 65
0.2891337727077454 0.8358337610344477 0.1959396848744112 3 2 0
0.5438741666305349 0.8308069028934082 0.1553254458930452 1 0 0
-1.0293681338083172 0.5016593463039997 -0.0036442052546612 103 96 88
0.5438741666305349 0.8308069028934082 0.1553254458930452 1 3 0
-0.5634804299535972 0.9046850186612961 0.0173605665736167 75 51 39
-0.4667849783009805 1.3535536453027228 -0.0029831651301172 100 95 89
0.2147340519288133 0.8666271408215013 0.0286139616655751 13 6 0
0.8505643277946060 -0.7538468963544199 0.1639677418649534 99 75 63
-0.5368657012214995 -0.3696284712559884 -0.0030425637316195 97 90 84
-0.6062032669225331 0.9439335880631784 -0.0008897555238844 70 47 31
-0.6062032669225331 0.9439335880631784 -0.0008897555238844 70 47 31
-0.0696617343156282 0.1480994644947789 -0.0060015613804305 146 133 124
0.2300596741873167 0.8664213658619971 0.0293501948141955 10 10 8
1.2671826396885164 0.3008777260592798 -0.0109190148157208 94 87 81
-1.0526567938832847 1.2822003789028260 -0.0016774846428240 100 92 90
0.2510021419480369 0.8579365408297213 0.0310584587884976 102 79 71
0.2437826898996061 0.8659565019498738 0.0305728221738028 5 1 0
-1.2048315047998155 0.9820047974515501 -0.0041560207175455 93 77 64
-0.6550584532713203 1.0017359108742607 -0.0028474924564185 93 75 65
-1.7354215472789793 -0.2476879683946943 -0.0051998347532627 80 70 68
-1.1940616392671943 0.1246545697513581 -0.0043160259013840 115 108 102
-0.8415664008126220 0.8253711602017363 0.1854013802474581 91 63 49
-1.6758376495199450 0.4773093237231453 -0.0033930685204098 113 108 102
-0.9871297021549155 0.8595589908546156 0.0207277582396805 87 65 51
-0.4603404816624272 -0.4019974802254228 -0.0023726309543043 45 40 34
-0.0011640411620140 0.1363125202615382 0.0001140727416898 16 12 11
0.2622881112909221 0.8655723452780343 0.0258161542914876 8 1 0
0.2622881112909221 0.8655723452780343 0.0258161542914876 8 1 0
-1.7756670313630414 -0.1852325678978676 -0.0066324550951105 67 56 54
1.2181347615763896 -1.0357985253247093 -0.0051628581049312 82 75 65
-0.3524642550517298 0.8431118759362293 0.0314291057464554 80 56 44
-0.2348674034254032 0.8124385114574186 0.1876283701756852 91 56 37
0.6605218261200866 -0.6032323005509287 -0.0023524113227966 63 50 41
0.6609190455214650 -0.6032055466327645 -0.0024143356438641 65 51 42
-0.0136919452641565 1.1089684833865119 -0.0028984794350764 23 18 12
-0.0133699931996026 1.1085232457574843 -0.0036102393515748 21 14 8
-1.5810656886217955 0.4850965404616212 -0.0037652324768431 104 91 82
-0.2208028542796638 0.8276768037747718 0.1863814055624481 110 78 63
-1.0581689446009119 0.9486344495750827 -0.0192425154993400 94 72 58
0.4325145134047291 0.8239779283856914 0.1894612295056179 90 63 52
-1.0110614710262176 0.6420384650136175 -0.0048677566299877 117 99 85
1.7127091715808920 -0.6262073217625561 -0.0014426606568844 74 56 42
0.4101290543891126 0.8034493166140628 0.1869885611790691 1 0 0
0.0107307702328519 -0.6545550820146430 -0.0048448801087983 75 55 46
-0.5303679329554446 1.0074129042341808 -0.0026883721599064 86 72 61
-0.0691589094783851 1.1517638183401273 -0.0509366546392322 102 95 89
-0.0686613050811956 -0.5925714547933211 -0.0107829132971224 108 91 75
0.0561947452727697 1.0754765552129815 -0.0022247211238200 67 58 51
-1.0496454129397501 0.6971992885670982 -0.0059530656866187 93 71 57
-0.5398395930670804 1.0521318871930603 -0.0030643643624983 76 69 63
0.3676751699984571 0.8733700820004411 0.0218174907270707 71 71 69
0.4594466046918170 0.8346365304329411 0.1808003173114679 6 0 0
0.3792326093377257 0.8652420544095694 0.0183601370578298 9 1 0
0.3792326093377257 0.8652420544095694 0.0183601370578298 9 1 0
-1.0093526905921051 0.1398848694199668 -0.0040861933281366 148 134 123
0.5332440304764500 0.7838211522354231 0.1874024405885394 77 48 30
-0.0700016473066413 0.2880775437013516 -0.0076373990067497 141 128 119
-0.2133121239323118 0.8315574458452499 0.0373210299478591 78 56 45
1.6092842941201744 -0.0237393049466702 0.0014165571283155 54 47 39
-0.0585788908425175 0.7221428759959458 0.0179810106400504 77 48 30
0.4072935969791039 0.8658822765007130 0.0277899042700713 6 0 0
-0.4692316624939828 1.0292969391338636 -0.0036153133869079 93 83 74
-0.5872297445859462 0.3927751943033591 -0.0040636810198869 117 110 104
-1.0082488634971551 0.1643538230024819 -0.0033589419649120 145 131 120
-0.4708369089486947 0.3118528828113151 -0.0029392693376974 121 114 108
-0.6333229895647096 0.7990444920990943 0.1880853087145765 73 47 30
-1.0155265997151890 0.8276304169911763 0.1832512058590056 128 95 78
1.6035314330280910 0.0327002697864271 -0.0038433562088608 118 101 91
-0.0702335584843426 0.3206513529273610 -0.0051641773507044 128 111 101
-0.0662455096489997 1.2473659497644076 -0.0073010015404152 162 149 140
-0.6585665821031264 -0.1040976936281629 -0.0027658340243445 78 68 59
-0.9945739361886328 0.8283236292181917 0.1856160823145537 130 98 85
1.6030467306820180 0.0472935821294889 -0.0036169960471372 116 98 86
-1.1958165581083011 0.9047097594929886 0.0185994177963459 77 49 35
-1.1958165581083011 0.9047097594929886 0.0185994177963459 77 49 35
1.0354212192768055 -0.7743039473711784 -0.1056515938128293 14 14 14
-1.1191578046307469 0.9553220843115096 -0.0170062496018028 86 64 50
1.2421696104242825 -0.5876576513482141 -0.0033416005528965 106 88 74
-1.1369045968604998 0.8936303927038962 0.0224657090986697 76 58 48
0.5987905872074685 0.8348292956792858 0.1780002166478529 7 3 0
0.4885492850200472 0.8874261469667820 0.0001655755016552 78 55 41
-0.0804231906187991 0.1305243531772287 -0.0061775331889775 97 90 82
0.4136748155910344 -0.7529080726462739 0.1463562383200064 6 7 2
-1.1446850495083976 -0.6580794128129578 0.0133366304526942 117 84 65
-1.0784165269403778 -0.6924225762625053 0.0172646169610984 116 88 76
0.0270485279708372 -1.0980754127590131 -0.0008875523055344 89 84 78
-1.0761039541676436 0.9543392290664657 0.0093276848381481 93 69 57
-0.6624634929136566 0.5612883595071129 -0.0028876263659461 93 80 72
-0.8386267848404898 0.7839124039928536 0.1875964980226614 86 60 45
-0.3155772807281310 -0.7565133796785470 0.0471033166534845 78 58 49
-1.6044503254829283 0.6850047738229580 0.0056826372878861 41 28 22
-0.6701972579317278 0.9237539761241640 -0.0057407432962932 113 88 68
0.0609763187121092 0.3967434492194831 -0.0025081148638033 104 97 91
-0.6217646453024126 0.9037955646457638 0.0112419872671359 75 47 33
0.1053048313534990 -0.4809684951917270 -0.0019538090147166 105 98 92
-0.6470762761540294 0.8226000356958244 0.1796511882691260 97 64 45
-0.0868894320478362 -0.3530699958801187 -0.1101411571046794 81 74 68
1.4270128817021894 -0.7382928596650172 0.0326909876031043 106 78 64
-0.6458322495603334 0.9890047424191750 -0.0030735156132279 60 42 30
1.5923979626893741 -0.6763424401764186 -0.1653934873240062 74 67 61
-1.0259638586437116 1.0687504606851737 -0.0023107562710859 80 71 64
-1.0262965933293366 1.1058908261191416 -0.0009087827347189 91 86 80
-0.6268595083601468 1.0218817523055166 -0.0031629969673228 97 83 74
-1.0364685112497700 1.3224457827828600 -0.0045658116133413 97 92 86
-0.5868070850845274 1.0112803215825195 -0.0046546263033935 97 81 68
-1.0090952346242172 0.3569973738020176 -0.1709684118395065 24 20 19
0.1053826142282171 -0.3431272360036781 -0.0023768180553460 53 46 40
0.5877738996328822 -1.0194716114829283 -0.0027667693615140 71 57 48
1.6317809995958132 -0.5254885533527116 -0.0020512219906926 83 76 70
-1.1034481215599290 0.5732449588534260 -0.0040803601153661 104 91 83
1.0853741830662902 -1.3115743772343842 -0.0060737413868187 111 100 94
-1.5029053284641378 0.7829750913673870 0.1804064794388822 86 55 37
0.6259663508719532 -0.7477805949703935 0.1556351836240912 15 7 4
1.2657559298013845 -0.2538334004970639 -0.0102800538285018 92 85 79
1.6122973533102611 -0.2450684016612730 -0.0018829258877707 54 50 41
1.0294008139113597 0.2581225986181467 -0.0060450749456930 84 75 68
0.3646778126211140 0.8263254347369120 0.1875657605671545 131 98 81
0.5163344300654746 0.6893016248660907 0.0160267425110151 105 76 58
1.0328541544101459 0.3353631756698784 -0.0203062294540130 76 68 65
1.2546293225632856 -0.7430225149629704 0.1846020615675557 0 0 0
-1.0070430851527543 -0.7125932243212854 -0.0029948534194822 114 91 77
-0.9912886384557488 0.8465294024936015 0.0313450539864500 89 64 57
-1.6188650072939470 0.6914884432447591 0.0185809259319299 128 104 92
-0.7833404908484363 -0.7832489879142405 0.0477307954771115 79 60 53
-0.6532516489550534 -1.0128880752864446 -0.0450503937237816 84 67 59
-1.7125980565904992 -0.0431855385082133 -0.0047830035664426 129 122 116
0.1134873345085622 -1.3042542877454684 -0.0002311746687340 103 95 92
-0.6233818675429170 -0.7473505305908643 0.1670570209124673 86 72 69
-0.7271999615595381 0.8422056623380645 0.0424829169163646 84 66 56
-1.6298989259364858 -0.0189233898153219 -0.0039578599846532 66 59 53
-0.0713452039522066 -1.0668291550734801 -0.0415500610363018 107 93 80
-0.5722753872151067 -0.7742309959573439 0.0488837328580938 87 70 63
-0.5210538079451772 0.6994569613513428 0.0676588640087988 110 78 63
-0.5263855623732647 -0.7829991680309873 0.0337935797483892 94 77 69
1.1582768203127818 -0.4268835401403999 -0.0021864095182793 66 61 55
1.0409583965760349 -0.3068479294046181 -0.1258168277294504 64 59 55
-1.6049032943305221 0.4417085270016916 -0.0060922802539929 85 77 74
1.0481652424565384 -0.2273107917858107 -0.0071836247411415 134 120 109
-1.2865581067403842 0.8411084246377645 0.0369232189913668 91 68 60
-0.6421409155581610 1.0109151995510297 -0.0021496201018187 69 55 46
-0.5520318221272447 0.9581467703274692 -0.0139292759408380 98 75 61
1.5966897548299781 -0.6261089901153636 -0.1677509103040049 83 74 65
